VERSION 0.7
FIELDS x y z intensity label
SIZE 4 4 4 4 4
TYPE F F F F F
COUNT 1 1 1 1 1
WIDTH 1195
HEIGHT 1
VIEWPOINT 11.001 7.5009 2.7456 0.999999 -0.000342482 -0.00118971 -0.000374014
POINTS 1195
DATA ascii
9.2125 -12.5873 -1.36468 0.000291022 10
9.21359 -12.5888 -0.817574 0.000294472 10
9.21889 -12.596 -0.27246 0.000296188 10
9.21011 -12.584 0.2722 0.000296145 10
9.21839 -12.5953 0.818 0.000294344 10
9.22536 -12.6049 1.36659 0.000343284 10
9.21319 -12.5882 1.91539 0.000337125 10
9.21494 -12.5906 2.4712 0.000329064 10
9.21941 -12.5967 3.03429 0.000319213 10
9.2218 -12.6 3.60481 0.000307708 10
9.22427 -12.6034 4.18492 0.000294707 10
6.11736 -8.29739 -2.7622 0.000235544 1
7.12138 -9.65921 -2.77056 0.000126685 1
8.46507 -11.4817 -2.77282 5.88175e-05 1
9.28565 -12.5948 -2.47836 0.000417313 10
9.279 -12.5857 -1.91992 0.000427418 10
16.1796 -21.9454 0.475912 3.58446e-05 10
9.27897 -12.5857 1.36801 0.00033901 10
9.28355 -12.5919 1.92086 0.000332922 10
9.27832 -12.5848 2.4764 0.000324953 10
9.2874 -12.5971 3.04218 0.000315215 10
9.28856 -12.5987 3.61369 0.000303843 10
9.2893 -12.5997 4.19444 0.000290993 10
6.15524 -8.28804 -2.76622 0.000235524 1
7.14342 -9.61862 -2.76605 0.000126672 1
8.50961 -11.4582 -2.77429 5.88099e-05 1
9.34755 -12.5865 -2.48313 0.000412059 10
9.35135 -12.5916 -1.92579 0.000422046 10
9.42808 -12.6949 -1.38346 0.000203357 10
9.43923 -12.7099 -0.829702 0.00020567 10
9.44468 -12.7173 -0.276502 0.000206763 10
9.43466 -12.7038 0.276209 0.000206622 10
9.43398 -12.7029 0.829241 0.000205247 10
9.3452 -12.5833 1.37129 0.000334755 10
9.34725 -12.5861 1.92494 0.000328736 10
9.35944 -12.6025 2.48629 0.00032086 10
9.35215 -12.5927 3.04897 0.000311235 10
9.3545 -12.5958 3.62222 0.000299996 10
9.34956 -12.5892 4.20178 0.000287295 10
6.17796 -8.25825 -2.76346 0.000235504 1
7.19263 -9.61458 -2.77209 0.000126659 1
8.54318 -11.4199 -2.77222 5.88023e-05 1
9.4213 -12.5937 -2.49103 0.000406827 10
9.41992 -12.5919 -1.93084 0.000416698 10
9.43943 -12.618 -1.37865 0.000208096 10
9.44246 -12.622 -0.826108 0.000210459 10
9.44198 -12.6214 -0.275132 0.000211576 10
9.43032 -12.6058 0.274792 0.000211432 10
9.43568 -12.6129 0.825515 0.000210029 10
9.41661 -12.5874 1.37532 0.000330517 10
9.41468 -12.5849 1.92977 0.000324569 10
9.42616 -12.6002 2.49232 0.000316785 10
9.41762 -12.5888 3.05597 0.000307273 10
9.42681 -12.6011 3.63317 0.000296165 10
9.42342 -12.5965 4.21519 0.000283614 10
6.21241 -8.24414 -2.76598 0.000235484 1
7.21528 -9.575 -2.76792 0.000126646 1
8.57764 -11.3829 -2.77049 5.87947e-05 1
9.48282 -12.5841 -2.49567 0.00040162 10
9.48062 -12.5812 -1.93427 0.000411374 10
9.49681 -12.6027 -1.3806 0.000276625 10
9.48179 -12.5828 -0.825701 0.000279918 10
9.48553 -12.5877 -0.275119 0.000281555 10
9.49027 -12.594 0.275256 0.000281514 10
9.48182 -12.5828 0.825704 0.000279795 10
9.49284 -12.5974 1.38002 0.000326299 10
9.49753 -12.6036 1.93772 0.000320421 10
9.48822 -12.5913 2.49709 0.000312728 10
9.49467 -12.5999 3.06669 0.000303329 10
9.49817 -12.6045 3.64368 0.000292352 10
9.48987 -12.5935 4.22522 0.00027995 10
6.24357 -8.2256 -2.76706 0.000235464 1
7.24927 -9.55057 -2.76816 0.000126633 1
8.63308 -11.3737 -2.77556 5.87872e-05 1
9.55627 -12.5899 -2.50342 0.000396436 10
9.55519 -12.5885 -1.94051 0.000406075 10
16.6682 -21.9596 0.481219 3.35621e-05 10
9.56746 -12.6047 1.38446 0.000322101 10
9.55772 -12.5918 1.94102 0.000316292 10
9.56909 -12.6068 2.50678 0.000308691 10
9.55454 -12.5876 3.07181 0.000299403 10
9.56422 -12.6004 3.65213 0.000288557 10
9.56307 -12.5989 4.23821 0.000276303 10
6.27504 -8.20742 -2.76829 0.000235445 1
7.29336 -9.53932 -2.77226 0.00012662 1
8.6574 -11.3234 -2.77066 5.87797e-05 1
9.62827 -12.5933 -2.51075 0.000391277 10
9.62279 -12.5861 -1.9453 0.0004008 10
9.7094 -12.6994 -1.39858 0.000199438 10
9.69796 -12.6844 -0.836795 0.000201718 10
9.70725 -12.6966 -0.278972 0.000202797 10
9.71303 -12.7041 0.279138 0.00020266 10
9.71896 -12.7119 0.838607 0.000201309 10
9.62488 -12.5888 1.3864 0.000317922 10
9.63313 -12.5996 1.94739 0.000312183 10
9.57135 -12.5188 2.49591 0.000238798 10
9.5674 -12.5136 3.06188 0.000231499 10
9.5716 -12.5191 3.63824 0.000223002 10
9.62502 -12.589 4.24616 0.000272674 10
6.29417 -8.17315 -2.76412 0.000235425 1
7.32245 -9.5084 -2.77069 0.000126607 1
8.70962 -11.3097 -2.77472 5.87722e-05 1
9.6895 -12.5821 -2.51525 0.000386143 10
9.70405 -12.601 -1.95283 0.000395551 10
9.70223 -12.5986 -1.3912 0.000203969 10
9.70779 -12.6058 -0.83384 0.000206296 10
9.70372 -12.6005 -0.277605 0.000207399 10
9.71391 -12.6138 0.277896 0.000207259 10
9.71599 -12.6165 0.834545 0.000205881 10
9.6988 -12.5942 1.39071 0.000313763 10
9.69943 -12.595 1.9519 0.000308093 10
9.55764 -12.4109 2.48102 0.000244215 10
9.56108 -12.4153 3.04597 0.000236764 10
9.56204 -12.4166 3.61811 0.00022809 10
9.69309 -12.5867 4.25678 0.000269063 10
6.32428 -8.15321 -2.76483 0.000235406 1
7.35077 -9.47656 -2.76887 0.000126595 1
8.74377 -11.2724 -2.77304 5.87648e-05 1
9.76629 -12.5906 -2.52376 0.000381035 10
9.77608 -12.6032 -1.95846 0.000390328 10
9.76172 -12.5847 -1.39342 0.000262492 10
9.77537 -12.6023 -0.835862 0.00026563 10
9.76041 -12.583 -0.277968 0.000267189 10
9.76281 -12.5861 0.278036 0.000267149 10
9.77339 -12.5998 0.835692 0.000265511 10
9.76995 -12.5954 1.3946 0.000309625 10
9.76861 -12.5936 1.95696 0.000304023 10
9.57304 -12.3415 2.47382 0.000249704 10
9.55693 -12.3207 3.03093 0.000242099 10
9.56528 -12.3315 3.60302 0.000233246 10
9.76438 -12.5882 4.26877 0.00026547 10
6.35299 -8.13146 -2.76496 0.000235386 1
7.3875 -9.45557 -2.77025 0.000126582 1
8.77807 -11.2354 -2.77146 5.87574e-05 1
9.82891 -12.5804 -2.52858 0.000375952 10
9.83602 -12.5895 -1.96165 0.000385131 10
9.98125 -12.7754 -1.41839 0.00019137 10
9.97312 -12.765 -0.848956 0.000193571 10
9.98053 -12.7745 -0.282965 0.000194614 10
9.97865 -12.7721 0.282912 0.000194484 10
9.84312 -12.5986 1.39876 0.000305508 10
9.84708 -12.6037 1.96385 4.74917e-05 10
9.56287 -12.2399 2.46013 0.000255266 10
9.55951 -12.2356 3.01818 0.000247506 10
9.56551 -12.2433 3.58699 0.000238472 10
9.83724 -12.5911 4.28138 0.000261896 10
6.3878 -8.11745 -2.76776 0.000235367 1
7.42256 -9.43239 -2.77104 0.00012657 1
8.83008 -11.221 -2.7755 5.87501e-05 1
9.90565 -12.5878 -2.537 0.000370896 10
9.91626 -12.6013 -1.96887 0.000379962 10
9.96768 -12.6667 -1.41017 0.000195647 10
9.97533 -12.6764 -0.845372 0.000197894 10
9.98011 -12.6825 -0.281696 0.000198959 10
9.97566 -12.6768 0.281571 0.000198826 10
9.98141 -12.6841 0.845887 0.000197499 10
9.91692 -12.6022 1.40298 0.000301411 10
9.88238 -12.5583 1.96214 4.75012e-05 10
9.63674 -12.2461 2.46813 0.000323643 10
9.63009 -12.2377 3.02696 0.000313963 10
9.63102 -12.2388 3.59552 0.000302657 10
9.92138 -12.6078 4.29882 0.000258341 10
6.40868 -8.08574 -2.76456 0.000235348 1
7.44904 -9.39836 -2.76866 0.000126557 1
8.86732 -11.1878 -2.77491 5.87427e-05 1
9.98846 -12.6023 -2.54693 0.000365867 10
9.97412 -12.5842 -1.97162 0.000374819 10
9.98377 -12.5964 -1.40621 0.000252077 10
9.98529 -12.5983 -0.842484 0.000255099 10
9.99013 -12.6044 -0.280736 0.000256602 10
9.98744 -12.601 0.28066 0.000256563 10
9.98573 -12.5989 0.842521 0.000254984 10
9.98725 -12.6008 1.4067 0.000297337 10
9.93107 -12.5299 1.96311 4.75107e-05 10
9.95457 -12.5595 3.69991 7.97977e-05 10
9.99106 -12.6056 4.30992 0.000254805 10
6.43456 -8.06043 -2.76357 0.000235329 1
7.48427 -9.37538 -2.76957 0.000126545 1
8.90942 -11.1606 -2.77588 5.87354e-05 1
10.0598 -12.6017 -2.55389 0.000360865 10
10.0592 -12.6009 -1.97972 0.000369705 10
10.0482 -12.5871 -1.40909 0.000248642 10
10.0504 -12.59 -0.844267 0.000251626 10
10.0441 -12.5821 -0.281018 0.00025311 10
10.0475 -12.5862 0.28111 0.000253071 10
10.0533 -12.5936 0.844509 0.000251512 10
10.0502 -12.5896 1.40937 0.000293285 10
9.96076 -12.4776 1.96036 4.75201e-05 10
10.0119 -12.5417 3.70495 7.98064e-05 10
10.049 -12.5881 4.31591 0.000251289 10
6.01807 -7.48497 -2.57346 0.000223387 4
7.50983 -9.34034 -2.76695 0.000126532 1
8.94716 -11.128 -2.77552 5.87282e-05 1
10.1262 -12.5944 -2.55956 0.000355891 10
10.1324 -12.6022 -1.98547 0.000364618 10
10.2381 -12.7336 -1.42947 0.000187873 10
10.2418 -12.7382 -0.8566 0.000190044 10
10.2387 -12.7343 -0.285214 0.000191073 10
10.2421 -12.7386 0.28531 0.000190947 10
10.2588 -12.7594 0.858026 0.000189667 10
10.1268 -12.5952 1.41394 0.000289254 10
10.0139 -12.4547 1.96224 4.75295e-05 10
10.1998 -12.686 2.57816 0.00013838 10
10.0397 -12.4868 3.69906 7.98149e-05 10
10.1315 -12.601 4.33243 0.000247793 10
6.03965 -7.45834 -2.57153 0.000167527 4
7.55707 -9.33221 -2.77234 0.00012652 1
8.97793 -11.0868 -2.77304 5.8721e-05 1
10.203 -12.5997 -2.56785 0.000350946 10
10.1998 -12.5957 -1.99005 0.000359561 10
10.2541 -12.6628 -1.42553 0.000191966 10
10.2379 -12.6428 -0.85258 0.000194181 10
10.2421 -12.6479 -0.284078 0.000195232 10
10.2412 -12.6469 0.284054 0.000195104 10
10.2583 -12.668 0.854281 0.000193798 10
10.2053 -12.6025 1.41875 0.000285247 10
10.0503 -12.4111 1.96089 4.75389e-05 10
10.0894 -12.4593 3.70132 7.98234e-05 10
10.2059 -12.6033 4.34544 0.000244317 10
6.07597 -7.44987 -2.57591 0.000313414 4
7.58521 -9.30039 -2.77073 0.000126508 1
9.01426 -11.0526 -2.77233 5.87138e-05 1
10.2628 -12.5835 -2.57183 0.000346029 10
10.2718 -12.5945 -1.99551 0.000354532 10
10.2671 -12.5887 -1.42122 0.000238452 10
10.2702 -12.5925 -0.851601 0.000241323 10
10.2612 -12.5815 -0.283389 0.000242751 10
10.2688 -12.5908 0.283598 0.000242713 10
10.2626 -12.5832 0.850974 0.000241212 10
10.2719 -12.5946 1.42189 0.000281262 10
10.1067 -12.392 1.96343 4.75482e-05 10
10.1273 -12.4173 3.69932 7.98318e-05 10
10.2737 -12.5968 4.35554 0.000240862 10
6.09838 -7.42429 -2.57441 0.00023234 4
7.61282 -9.268 -2.76898 0.000126496 1
9.0603 -11.0302 -2.77463 5.87067e-05 1
10.3442 -12.5933 -2.5812 0.00034114 10
10.3516 -12.6023 -2.00246 0.000349533 10
10.348 -12.5979 -1.42633 0.000355921 10
10.3429 -12.5916 -0.853981 0.000360211 10
10.3465 -12.596 -0.284528 0.000362343 10
10.3427 -12.5914 0.284423 0.000362288 10
10.3437 -12.5926 0.854047 0.000360044 10
10.3502 -12.6005 1.42662 0.000277301 10
10.1446 -12.3503 1.96241 4.75574e-05 10
10.1758 -12.3882 3.70121 7.98402e-05 10
10.3531 -12.6041 4.37053 0.000237427 10
6.12861 -7.40822 -2.57624 0.000243128 4
7.64925 -9.24636 -2.77048 0.000126483 1
9.08967 -10.9875 -2.77187 5.86996e-05 1
10.4189 -12.5943 -2.58884 0.000336281 10
10.4187 -12.594 -2.00691 0.000344564 10
10.4164 -12.5913 -1.42969 0.000350867 10
10.4139 -12.5882 -0.856208 0.000355102 10
10.4197 -12.5953 -0.285332 0.000357206 10
10.4143 -12.5887 0.285182 0.000357151 10
10.4096 -12.5831 0.855862 0.000354937 10
10.4201 -12.5958 1.4302 0.000273364 10
10.1761 -12.3008 1.96019 4.75667e-05 10
10.2112 -12.3432 3.69838 7.98486e-05 10
10.4141 -12.5884 4.37768 0.000234013 10
6.14864 -7.37983 -2.57381 0.000223301 4
7.67731 -9.2146 -2.76897 0.000126471 1
9.14079 -10.9711 -2.77576 5.86926e-05 1
10.4939 -12.5952 -2.59654 0.000331452 10
10.4936 -12.5949 -2.01287 0.000339625 10
10.4972 -12.5991 -1.43473 0.000345846 10
10.4988 -12.6011 -0.859572 0.000350024 10
10.4895 -12.5899 -0.286038 0.0003521 10
10.4886 -12.5888 0.286013 0.000352046 10
10.4969 -12.5987 0.85941 0.000349861 10
10.4939 -12.5952 1.43429 0.00026945 10
10.2282 -12.2763 1.96196 4.75758e-05 10
10.2612 -12.3158 3.70089 7.98569e-05 10
10.4867 -12.5865 4.38972 0.00023062 10
6.17985 -7.36486 -2.5761 0.000192672 4
7.70889 -9.18711 -2.76878 0.000126459 1
9.16672 -10.9245 -2.77204 5.86855e-05 1
10.5707 -12.5976 -2.60464 0.000326653 10
10.573 -12.6004 -2.01964 0.000334717 10
10.5697 -12.5965 -1.43862 0.000340855 10
10.564 -12.5896 -0.861302 0.000344977 10
10.5744 -12.6021 -0.287151 0.000347026 10
10.5745 -12.6022 0.287153 0.000346972 10
10.5687 -12.5952 0.861685 0.000344816 10
10.5597 -12.5846 1.43726 0.000265561 10
10.2637 -12.2318 1.96056 4.75849e-05 10
10.3141 -12.2919 3.70449 7.98652e-05 10
10.5775 -12.6058 4.4093 0.000227249 10
6.19825 -7.33464 -2.57308 0.000257477 4
7.73652 -9.15494 -2.76721 0.000126447 1
9.22152 -10.9122 -2.77707 5.86785e-05 1
10.6345 -12.5842 -2.60952 0.000321884 10
10.6421 -12.5933 -2.02444 0.00032984 10
10.6388 -12.5893 -1.44204 0.000335895 10
10.649 -12.6014 -0.864642 0.000339962 10
10.6367 -12.5868 -0.287647 0.000341984 10
10.6394 -12.5901 0.287721 0.00034193 10
10.6433 -12.5947 0.864181 0.000339802 10
10.6385 -12.589 1.442 0.000261696 10
10.3393 -12.2349 1.96684 0.000288278 10
10.6952 -12.656 2.62441 0.000156592 10
10.6991 -12.6607 3.22205 0.000151792 10
10.3502 -12.2478 3.70206 7.98734e-05 10
10.6451 -12.5968 4.4191 0.0002239 10
6.22397 -7.31314 -2.57315 0.000255657 4
7.78063 -9.14221 -2.77156 0.000126436 1
9.24522 -10.8631 -2.77277 5.86716e-05 1
10.7072 -12.5809 -2.61658 0.000317146 10
10.712 -12.5865 -2.02935 0.000324994 10
14.7139 -17.2888 -1.98621 7.06136e-05 10
14.718 -17.2936 -1.19012 7.15583e-05 10
14.7138 -17.2886 -0.396269 7.2008e-05 10
14.7156 -17.2908 0.396318 7.1955e-05 10
10.7181 -12.5938 1.44683 0.000257856 10
10.4057 -12.2267 1.97134 0.00028409 10
10.726 -12.603 2.62117 0.000133106 10
10.7342 -12.6127 3.21935 0.000128961 10
10.4051 -12.2259 3.70642 0.000259023 10
10.717 -12.5925 4.4307 0.000220573 10
6.25654 -7.29963 -2.57606 0.000248436 4
7.80035 -9.10083 -2.76725 0.000126424 1
9.287 -10.8353 -2.77394 5.86647e-05 1
10.7853 -12.5834 -2.62491 0.00031244 10
10.787 -12.5854 -2.03523 0.000320181 10
14.7955 -17.2622 -1.98907 8.221e-05 10
14.8107 -17.2799 -1.19272 8.33573e-05 10
14.8027 -17.2706 -0.397038 8.39281e-05 10
14.8066 -17.2751 0.397142 8.3913e-05 10
10.7713 -12.567 1.44806 0.000219988 10
10.4854 -12.2335 1.97832 0.000279929 10
10.7741 -12.5704 2.62219 0.000210459 10
10.7708 -12.5666 3.21715 0.000203911 10
10.4911 -12.2401 3.7218 0.000255201 10
10.7755 -12.572 4.43671 0.000187707 10
6.27486 -7.2695 -2.57314 0.000253818 4
7.83862 -9.08113 -2.76956 0.000126412 1
9.33214 -10.8114 -2.77614 5.86578e-05 1
10.8621 -12.5838 -2.63288 0.000307765 10
10.8681 -12.5908 -2.04222 0.000315399 10
14.8998 -17.2616 -1.99498 8.08028e-05 10
14.9035 -17.2659 -1.19534 8.1932e-05 10
14.903 -17.2654 -0.398111 8.2494e-05 10
14.9089 -17.2721 0.398267 8.24789e-05 10
10.7605 -12.4661 1.44075 0.000224506 10
10.5528 -12.2256 1.98299 0.000275795 10
10.763 -12.4691 2.60887 0.000214797 10
10.7685 -12.4754 3.20343 0.000208125 10
10.5702 -12.2457 3.7347 0.000251405 10
10.7703 -12.4776 4.41661 0.000191614 10
6.31281 -7.26206 -2.57829 0.0001944 4
7.87837 -9.06303 -2.77241 0.0001264 1
9.37421 -10.7838 -2.77744 5.86509e-05 1
10.954 -12.6011 -2.64449 0.000303122 10
10.9416 -12.5868 -2.04777 0.000310651 10
15.0178 -17.276 -2.0027 7.9408e-05 10
15.0196 -17.2781 -1.19981 8.05193e-05 10
15.0128 -17.2703 -0.399431 8.10723e-05 10
15.0192 -17.2776 0.399599 8.10575e-05 10
10.7521 -12.3689 1.43384 0.000229075 10
10.6365 -12.2359 1.99067 0.000271688 10
10.7693 -12.3886 2.5999 0.000219186 10
10.7722 -12.392 3.19165 0.000212389 10
10.6372 -12.2367 3.74324 0.000247633 10
10.7736 -12.3936 4.40018 0.000195567 10
6.33087 -7.2317 -2.57534 0.000215983 4
7.90031 -9.02445 -2.76903 0.000126389 1
9.40099 -10.7387 -2.77425 5.86442e-05 1
11.0206 -12.5887 -2.64995 0.000298512 10
11.0213 -12.5895 -2.05445 0.000305935 10
10.7692 -12.3015 1.43039 0.000233698 10
10.709 -12.2328 1.99624 0.00026761 10
10.7635 -12.2951 2.58813 0.000223626 10
10.7696 -12.302 3.17812 0.000216702 10
10.7056 -12.2289 3.75227 0.000243888 10
10.7604 -12.2915 4.37722 0.000199566 10
6.35984 -7.21382 -2.57687 0.000221367 4
7.93666 -9.00237 -2.77074 0.000126377 1
9.43369 -10.7004 -2.77286 5.86374e-05 1
11.0944 -12.5841 -2.6571 0.000293934 10
11.0994 -12.5897 -2.0608 0.000301252 10
10.7949 -12.2444 1.42811 0.000268462 10
10.7774 -12.2245 2.00102 0.00026356 10
10.7774 -12.2246 2.58119 0.000257146 10
10.7874 -12.2359 3.17075 0.000249313 10
10.7898 -12.2387 3.7668 0.000240169 10
10.7928 -12.242 4.373 0.000229844 10
6.37542 -7.18081 -2.57301 0.000241146 4
7.97587 -8.98344 -2.77346 0.000126366 1
9.47486 -10.6718 -2.77399 5.86307e-05 1
11.1743 -12.5859 -2.6657 0.000289389 10
11.1692 -12.5802 -2.06561 0.000296603 10
10.8558 -12.2272 1.43052 0.000264372 10
10.8542 -12.2254 2.00734 0.000259538 10
10.8587 -12.2305 2.59043 0.000253214 10
10.8579 -12.2296 3.17892 0.000245491 10
10.8644 -12.2369 3.77791 0.000236477 10
10.8627 -12.2349 4.38398 0.000226297 10
6.40153 -7.15973 -2.57345 0.000277118 4
7.99096 -8.9374 -2.76784 0.000126354 1
9.51779 -10.6451 -2.77567 5.8624e-05 1
11.2515 -12.5842 -2.67364 0.000284878 10
11.2559 -12.589 -2.07349 0.000291988 10
10.9289 -12.2233 1.43452 0.00026031 10
10.9465 -12.2429 2.01649 0.000255545 10
10.9404 -12.2361 2.5997 0.000249311 10
10.944 -12.2402 3.19158 0.000241697 10
10.9362 -12.2314 3.78798 0.000232811 10
10.9324 -12.2272 4.39487 0.000222777 10
6.42472 -7.13537 -2.57274 0.000230315 4
8.0199 -8.907 -2.76708 0.000126343 1
9.54627 -10.6022 -2.77316 5.86173e-05 1
11.3374 -12.5914 -2.68357 0.0002804 10
11.3281 -12.5812 -2.0787 0.000287407 10
11.0195 -12.2384 1.4408 0.000256279 10
11.0205 -12.2395 2.02225 0.000251581 10
11.0072 -12.2248 2.60543 0.000245436 10
11.0108 -12.2287 3.19861 0.000237931 10
11.0244 -12.2438 3.80371 0.000229172 10
11.0248 -12.2443 4.41481 0.000219283 10
6.45708 -7.12116 -2.57573 0.000239294 4
8.06999 -8.89996 -2.77363 0.000126332 1
9.59026 -10.5766 -2.7752 5.86107e-05 1
11.4144 -12.5884 -2.6914 0.000275956 10
11.4187 -12.5931 -2.08723 0.000282861 10
11.0891 -12.2296 1.44431 0.000252277 10
11.096 -12.2372 2.02826 0.000247646 10
11.09 -12.2305 2.61489 0.000241589 10
11.0993 -12.2409 3.21189 0.000234193 10
11.09 -12.2305 3.81159 0.000225561 10
11.0886 -12.2291 4.42326 0.000215815 10
6.48095 -7.09755 -2.57535 0.000203296 4
8.0852 -8.85443 -2.76822 0.00012632 1
9.63591 -10.5527 -2.77773 5.86041e-05 1
11.5023 -12.5967 -2.70174 0.000271546 10
11.5013 -12.5955 -2.09429 0.00027835 10
11.1775 -12.241 1.45025 0.000248304 10
11.1632 -12.2253 2.03273 0.000243741 10
11.166 -12.2283 2.62273 0.000237772 10
11.1729 -12.2359 3.2208 0.000230483 10
11.1665 -12.2289 3.82321 0.000221977 10
11.1767 -12.2401 4.44133 0.000212374 10
6.50569 -7.07489 -2.57535 0.000248255 4
8.12665 -8.83767 -2.77183 0.000126309 1
9.65526 -10.5 -2.77273 5.85976e-05 1
11.5746 -12.5873 -2.70839 0.000267171 10
11.5782 -12.5912 -2.10028 0.000273874 10
11.2466 -12.2306 1.45367 0.000244362 10
11.2503 -12.2346 2.04079 0.000239866 10
11.2536 -12.2382 2.63327 0.000233984 10
11.2405 -12.2239 3.22796 0.000226802 10
11.2537 -12.2383 3.83841 0.000218422 10
11.246 -12.2299 4.45186 0.00020896 10
6.53079 -7.05262 -2.57553 0.000280616 4
8.15188 -8.80323 -2.76994 0.000126298 1
9.69684 -10.4716 -2.77415 5.85911e-05 1
11.65 -12.5809 -2.71573 0.000262831 10
11.6509 -12.5818 -2.10547 0.000269433 10
11.3255 -12.2304 1.45834 0.000240451 10
11.3326 -12.2381 2.04796 0.00023602 10
11.3368 -12.2427 2.64272 0.000230226 10
11.3336 -12.2391 3.2424 0.00022315 10
11.3385 -12.2445 3.85273 0.000214893 10
11.3373 -12.2432 4.47105 0.000205572 10
6.56565 -7.0408 -2.57957 0.000230233 4
8.1917 -8.78452 -2.77303 0.000126287 1
9.74758 -10.453 -2.77822 5.85846e-05 1
11.7426 -12.5924 -2.72706 0.000258525 10
11.7504 -12.6008 -2.1155 0.000265028 10
11.4037 -12.2289 1.4629 0.00023657 10
11.4043 -12.2296 2.05319 0.000232205 10
11.4084 -12.234 2.64944 0.000226497 10
11.4054 -12.2308 3.25071 0.000219527 10
11.4112 -12.2371 3.8629 0.000211394 10
11.4066 -12.2321 4.48153 0.000202212 10
6.5899 -7.01754 -2.57946 0.000246404 4
8.21255 -8.74548 -2.76974 0.000126276 1
9.77809 -10.4126 -2.77653 5.85782e-05 1
11.8205 -12.5875 -2.73492 0.000254255 10
11.8173 -12.5841 -2.11962 0.00026066 10
11.491 -12.2367 1.46861 0.000232721 10
11.48 -12.225 2.05913 0.000228421 10
11.4926 -12.2384 2.65906 0.000222798 10
11.4837 -12.2289 3.26085 0.000215933 10
11.4831 -12.2283 3.87277 0.000207922 10
11.4887 -12.2342 4.49695 0.00019888 10
6.61519 -6.99537 -2.57978 0.000201426 4
8.23875 -8.71224 -2.7683 0.000126265 1
9.81709 -10.3813 -2.7773 5.85718e-05 1
11.9068 -12.5911 -2.74472 0.000250021 10
11.8984 -12.5822 -2.12628 0.000256327 10
11.567 -12.2318 1.47286 0.000228902 10
11.5602 -12.2246 2.06584 0.000224668 10
11.574 -12.2391 2.66798 0.00021913 10
11.5671 -12.2319 3.27239 0.000212368 10
11.5665 -12.2312 3.88645 0.000204479 10
11.5675 -12.2322 4.51106 0.000195575 10
6.63541 -6.96787 -2.57817 0.000206807 4
8.27748 -8.69221 -2.7711 0.000126254 1
9.84683 -10.3402 -2.77549 5.85655e-05 1
11.9901 -12.5908 -2.75375 0.000245823 10
11.9998 -12.6011 -2.13653 0.000252031 10
11.6472 -12.2307 1.47762 0.000225116 10
11.6565 -12.2405 2.0754 0.000220945 10
11.6414 -12.2246 2.67366 0.000215492 10
11.6585 -12.2427 3.28614 0.000208833 10
11.6455 -12.2289 3.89862 0.000201065 10
11.644 -12.2274 4.52424 0.000192298 10
6.65543 -6.94021 -2.57651 0.000151048 4
8.30154 -8.65676 -2.76902 0.000126243 1
9.88894 -10.3121 -2.77719 5.85592e-05 1
12.0731 -12.5897 -2.7627 0.00024166 10
12.0799 -12.5969 -2.14295 0.000247772 10
11.7268 -12.2286 1.4823 0.000221361 10
11.7355 -12.2377 2.08185 0.000217254 10
11.725 -12.2268 2.68307 0.000211884 10
11.7339 -12.236 3.29534 0.000205329 10
11.7235 -12.2251 3.91043 0.000197681 10
11.7295 -12.2314 4.54085 0.000189049 10
6.68234 -6.91977 -2.57757 0.000181605 4
8.33408 -8.6302 -2.76981 0.000126233 1
9.90989 -10.262 -2.773 5.85529e-05 1
12.1488 -12.5805 -2.76997 0.000237535 10
12.1529 -12.5847 -2.14808 0.000243551 10
11.8162 -12.2361 1.4882 0.000217638 10
11.8172 -12.2371 2.08875 0.000213595 10
11.8141 -12.2338 2.69365 0.000208308 10
11.8155 -12.2353 3.30622 0.000201854 10
11.8174 -12.2373 3.9275 0.000194325 10
11.8215 -12.2415 4.55988 0.000185828 10
6.69544 -6.88508 -2.57333 0.000213956 4
8.36686 -8.60383 -2.77071 0.000126222 1
9.9479 -10.2297 -2.77363 5.85467e-05 1
12.2462 -12.5931 -2.78215 0.000233445 10
12.2448 -12.5917 -2.15656 0.000239366 10
11.8931 -12.2299 1.49249 0.000213947 10
11.8957 -12.2326 2.09506 0.000209967 10
11.8875 -12.2242 2.70065 0.000204763 10
11.8881 -12.2248 3.31458 0.00019841 10
11.8895 -12.2263 3.93725 0.000190999 10
11.8887 -12.2254 4.5693 0.000182636 10
6.72354 -6.86585 -2.5749 0.000203155 4
8.40424 -8.58213 -2.77315 0.000126211 1
9.98568 -10.197 -2.77422 5.85405e-05 1
12.334 -12.5951 -2.16451 0.000235219 10
11.9884 -12.2422 1.49908 0.000210288 10
11.9723 -12.2257 2.10103 0.000206371 10
11.9719 -12.2253 2.7101 0.000201249 10
11.9904 -12.2442 3.33117 0.000194996 10
11.9896 -12.2433 3.9562 0.000187703 10
11.9852 -12.2388 4.58994 0.000179473 10
6.75627 -6.85127 -2.57827 0.000197748 4
8.41989 -8.53829 -2.76846 0.000126201 1
10.0182 -10.159 -2.77337 5.85343e-05 1
12.4097 -12.5842 -2.17007 0.00023111 10
12.0633 -12.2329 1.5031 0.000206662 10
12.059 -12.2285 2.10874 0.000202807 10
12.0599 -12.2295 2.72035 0.000197766 10
12.0555 -12.225 3.33739 0.000191613 10
12.0724 -12.2422 3.96942 0.000184436 10
12.0666 -12.2363 4.60476 0.000176338 10
6.76806 -6.81548 -2.57367 0.000262448 4
8.46283 -8.52212 -2.77278 0.00012619 1
10.0681 -10.1387 -2.77739 5.85282e-05 1
12.5001 -12.5876 -2.17817 0.000227038 10
12.1422 -12.2273 1.5076 0.000203069 10
12.1551 -12.2402 2.11805 0.000199275 10
12.144 -12.229 2.72966 0.000194315 10
12.1491 -12.2343 3.35146 0.000188261 10
12.1535 -12.2387 3.98201 0.0001812 10
12.1456 -12.2307 4.61857 0.000173232 10
6.79187 -6.79187 -2.57369 0.000230076 4
8.48083 -8.48083 -2.76896 0.00012618 1
10.0921 -10.0921 -2.77428 5.85221e-05 1
12.5798 -12.5798 -2.18441 0.000223005 10
12.2224 -12.2224 1.51225 0.000199508 10
12.2265 -12.2265 2.12305 0.000195776 10
12.2281 -12.2281 2.73896 0.000190896 10
12.2343 -12.2344 3.36316 0.00018494 10
12.2324 -12.2324 3.99384 0.000177993 10
12.2411 -12.2411 4.63862 0.000170155 10
6.8134 -6.766 -2.57289 0.000255224 4
8.52201 -8.46272 -2.77275 0.00012617 1
10.126 -10.0556 -2.77394 5.85161e-05 1
12.6823 -12.594 -2.19455 0.00021901 10
12.3275 -12.2417 1.51996 0.000195981 10
12.3191 -12.2334 2.1317 0.000192309 10
12.3172 -12.2315 2.74934 0.000187509 10
12.3202 -12.2345 3.37501 0.00018165 10
12.3171 -12.2314 4.00753 0.000174817 10
12.3263 -12.2405 4.65466 0.000167108 10
6.84452 -6.74962 -2.57573 0.00013659 4
8.55578 -8.43714 -2.77414 0.00012616 1
10.1653 -10.0244 -2.77509 5.85101e-05 1
12.7678 -12.5907 -2.20172 0.000215054 10
12.924 -12.7448 -1.588 0.000139714 10
12.9141 -12.735 -0.950526 0.000141411 10
12.9262 -12.747 -0.316882 0.000142223 10
12.9233 -12.7442 0.316811 0.000142137 10
12.9217 -12.7426 0.951088 0.000141154 10
12.4037 -12.2317 1.52407 0.000192487 10
12.4074 -12.2353 2.13958 0.000188875 10
12.4144 -12.2422 2.76148 0.000184154 10
12.4121 -12.24 3.38846 0.000178391 10
12.4109 -12.2388 4.02414 0.000171671 10
12.4104 -12.2383 4.67026 0.00016409 10
6.86573 -6.72342 -2.57486 0.000204871 4
8.58031 -8.40246 -2.77256 0.000126149 1
10.2046 -9.99313 -2.77629 5.85041e-05 1
12.8636 -12.5969 -2.21065 0.000211136 10
12.9143 -12.6467 -1.58139 0.000142229 10
12.918 -12.6503 -0.947559 0.000143954 10
12.912 -12.6444 -0.31545 0.000144779 10
12.9278 -12.6599 0.315836 0.000144692 10
12.929 -12.661 0.948366 0.000143694 10
12.4862 -12.2274 1.52897 0.000189027 10
12.485 -12.2262 2.14559 0.000185475 10
12.4824 -12.2237 2.76711 0.000180831 10
12.5018 -12.2426 3.40124 0.000175164 10
12.4997 -12.2406 4.03904 0.000168556 10
12.4953 -12.2363 4.68612 0.000161101 10
6.88558 -6.69594 -2.57352 0.000228219 4
8.59559 -8.35885 -2.76806 0.000126139 1
10.2291 -9.94739 -2.77348 5.84982e-05 1
12.941 -12.5846 -2.2164 0.000207258 10
12.9472 -12.5906 -1.58002 0.000139507 10
12.9373 -12.581 -0.945749 0.000141259 10
12.9426 -12.5862 -0.315122 0.000142128 10
12.9571 -12.6002 0.315474 0.000142103 10
12.9488 -12.5921 0.946584 0.000141183 10
12.5754 -12.2291 1.53465 0.0001856 10
12.5837 -12.2371 2.1552 0.000182107 10
12.5761 -12.2297 2.77839 0.000177541 10
12.5729 -12.2266 3.40898 0.000171969 10
12.5883 -12.2416 4.05384 0.000165472 10
12.5886 -12.2419 4.70507 0.000158143 10
6.91958 -6.68217 -2.5775 0.000203048 4
8.6262 -8.33023 -2.76853 0.000126129 1
10.2781 -9.92548 -2.77736 5.84923e-05 1
13.0473 -12.5996 -2.22704 0.000203418 10
13.1904 -12.7379 -1.60427 0.000135067 10
13.1931 -12.7404 -0.961186 0.000136716 10
13.1957 -12.7429 -0.320198 0.000137505 10
13.18 -12.7278 0.319817 0.000137422 10
13.1948 -12.7421 0.961316 0.000136469 10
12.6652 -12.2306 1.54038 0.000182207 10
12.6623 -12.2279 2.16134 0.000178773 10
12.662 -12.2275 2.78791 0.000174284 10
12.6721 -12.2373 3.42427 0.000168806 10
12.6765 -12.2415 4.06845 0.000162418 10
12.6733 -12.2384 4.7207 0.000155213 10
6.93167 -6.64724 -2.57334 0.000215612 4
8.664 -8.30848 -2.77134 0.000126119 1
10.3037 -9.88087 -2.77493 5.84864e-05 1
13.1321 -12.5932 -2.23401 0.000199618 10
13.175 -12.6343 -1.59701 0.000137458 10
13.1779 -12.6372 -0.956863 0.000139134 10
13.1828 -12.6418 -0.318813 0.000139935 10
13.1798 -12.639 0.318741 0.000139851 10
13.1922 -12.6508 0.957897 0.000138883 10
12.7614 -12.2377 1.54688 0.000178848 10
12.7513 -12.2281 2.16924 0.000175472 10
12.7641 -12.2403 2.80097 0.000171059 10
12.7665 -12.2427 3.43821 0.000165674 10
12.7598 -12.2362 4.08145 0.000159395 10
12.7526 -12.2293 4.73431 0.000152314 10
6.97443 -6.64166 -2.58059 0.000220988 4
8.69804 -8.28304 -2.77296 0.000126109 1
10.3462 -9.85251 -2.77709 5.84807e-05 1
13.2304 -12.5991 -2.24323 0.000195857 10
13.2168 -12.5862 -1.59675 0.000131844 10
13.2132 -12.5827 -0.956226 0.000133507 10
13.2225 -12.5916 -0.318708 0.000134332 10
13.2242 -12.5933 0.31875 0.000134308 10
13.2236 -12.5927 0.956981 0.000133435 10
12.8396 -12.227 1.55118 0.000175523 10
12.8423 -12.2296 2.17744 0.000172204 10
12.8569 -12.2434 2.81194 0.000167867 10
12.8481 -12.2351 3.44865 0.000162574 10
12.8424 -12.2297 4.09421 0.000156404 10
12.8534 -12.2401 4.75584 0.000149445 10
6.99067 -6.61075 -2.57805 0.000172468 4
8.71746 -8.24369 -2.76996 0.000126099 1
10.387 -9.82248 -2.77883 5.84749e-05 1
13.3083 -12.585 -2.24898 0.000192135 10
13.4647 -12.7329 -1.62131 0.00013063 10
13.4592 -12.7277 -0.970812 0.000132232 10
13.4469 -12.7161 -0.323046 0.000133 10
13.4701 -12.738 0.323602 0.00013292 10
13.4627 -12.7311 0.971065 0.000131995 10
12.9281 -12.2255 1.55671 0.000172232 10
12.9316 -12.2288 2.18533 0.000168971 10
12.9385 -12.2353 2.82044 0.000164708 10
12.9382 -12.2351 3.46136 0.000159507 10
12.9351 -12.2321 4.11011 0.000153444 10
12.9479 -12.2442 4.77498 0.000146606 10
7.00149 -6.57484 -2.57356 0.000228146 4
8.75046 -8.21723 -2.77132 0.00012609 1
10.4059 -9.77182 -2.77475 5.84691e-05 1
13.406 -12.5891 -2.25805 0.000188453 10
13.4477 -12.6282 -1.61395 0.000132904 10
13.4632 -12.6428 -0.967914 0.000134532 10
13.4526 -12.6329 -0.322122 0.000135312 10
13.4489 -12.6294 0.322033 0.000135231 10
13.4571 -12.637 0.967469 0.000134291 10
13.0355 -12.2411 1.56448 0.000168975 10
13.0244 -12.2307 2.19378 0.00016577 10
13.0204 -12.2269 2.82896 0.000161582 10
13.0362 -12.2418 3.47611 0.000156472 10
13.0384 -12.2439 4.12933 0.000150515 10
13.0364 -12.242 4.79181 0.000143797 10
7.02486 -6.55079 -2.57373 0.000220947 4
8.78362 -8.19086 -2.77275 0.00012608 1
10.4509 -9.74558 -2.77764 5.84635e-05 1
13.5028 -12.5915 -2.26694 0.000184811 10
13.4901 -12.5798 -1.61377 0.000124419 10
13.5046 -12.5933 -0.967722 0.000125996 10
13.4979 -12.587 -0.322152 0.000126778 10
13.5102 -12.5985 0.322445 0.000126755 10
13.4972 -12.5863 0.967188 0.000125926 10
13.1164 -12.2312 1.56905 0.000165753 10
13.126 -12.2402 2.20369 0.000162604 10
13.1192 -12.2338 2.84113 0.000158489 10
13.1244 -12.2387 3.48823 0.000153469 10
13.1104 -12.2257 4.1386 0.000147617 10
13.1274 -12.2415 4.80956 0.000141018 10
7.05605 -6.53397 -2.57678 0.000276616 4
8.81501 -8.16279 -2.77365 0.00012607 1
10.4765 -9.70137 -2.77545 5.84578e-05 1
13.5928 -12.587 -2.27465 0.000181208 10
13.7265 -12.7109 -1.63673 0.000126388 10
13.7222 -12.7069 -0.980128 0.000127946 10
13.7202 -12.705 -0.326396 0.000128692 10
13.7219 -12.7067 0.326438 0.000128615 10
13.7376 -12.7211 0.981227 0.000127717 10
13.2015 -12.2247 1.57412 0.000162565 10
13.2031 -12.2263 2.20945 0.000159472 10
13.2004 -12.2237 2.84946 0.00015543 10
13.2006 -12.2239 3.49711 0.000150499 10
13.2034 -12.2265 4.15446 0.000144751 10
13.2138 -12.2361 4.82552 0.00013827 10
7.07696 -6.5076 -2.57611 0.000256842 4
8.83037 -8.11994 -2.76954 0.000126061 1
10.5083 -9.66289 -2.77492 5.84522e-05 1
13.6823 -12.5815 -2.28227 0.000177646 10
13.7301 -12.6255 -1.63189 0.000128551 10
13.7319 -12.6272 -0.97767 0.000130134 10
13.737 -12.6318 -0.325745 0.000130892 10
13.7326 -12.6278 0.32564 0.000130814 10
13.7211 -12.6172 0.9769 0.000129902 10
13.3044 -12.2341 1.5813 0.000159412 10
13.3023 -12.2321 2.21888 0.000156374 10
13.3058 -12.2353 2.86299 0.000152404 10
13.298 -12.2281 3.51158 0.000147561 10
13.2959 -12.2262 4.17011 0.000141917 10
13.2997 -12.2297 4.84126 0.000135553 10
7.09976 -6.48298 -2.57616 0.000271194 4
8.87056 -8.09994 -2.77326 0.000126051 1
10.5408 -9.62512 -2.77462 5.84466e-05 1
13.7873 -12.5895 -2.29244 0.000174124 10
13.7958 -12.5973 -1.63446 0.000117235 10
13.7889 -12.591 -0.978593 0.000118728 10
13.788 -12.5902 -0.325911 0.000119469 10
13.7952 -12.5968 0.326082 0.000119446 10
13.7893 -12.5914 0.978621 0.000118661 10
13.3954 -12.2317 1.58702 0.000156294 10
13.3951 -12.2314 2.22723 0.00015331 10
13.4006 -12.2365 2.87418 0.000149412 10
13.3968 -12.233 3.52639 0.000144657 10
13.4034 -12.239 4.1904 0.000139114 10
13.4002 -12.2361 4.86228 0.000132866 10
7.12955 -6.46468 -2.57876 0.000190363 4
8.89342 -8.06407 -2.77159 0.000126042 1
10.5833 -9.59635 -2.77696 5.84411e-05 1
13.8904 -12.595 -2.30226 0.000170642 10
13.9898 -12.6851 -1.65218 0.000122327 10
13.9876 -12.6832 -0.989547 0.000123842 10
13.9968 -12.6915 -0.329796 0.000124568 10
13.9998 -12.6942 0.329867 0.000124494 10
13.9948 -12.6897 0.990055 0.000123622 10
13.4891 -12.2312 1.59305 0.00015321 10
13.4894 -12.2314 2.23579 0.000150281 10
13.4877 -12.2299 2.88368 0.000146453 10
13.4976 -12.2389 3.54164 0.000141784 10
13.4917 -12.2335 4.20461 0.000136343 10
13.4948 -12.2363 4.88105 0.000130209 10
7.14878 -6.43679 -2.57757 0.000179577 4
8.29689 -7.47056 -2.57754 0.000136937 4
10.6219 -9.56399 -2.77831 5.84356e-05 1
13.9778 -12.5857 -2.30946 0.0001672 10
13.997 -12.603 -1.64784 0.000124386 10
14.0022 -12.6076 -0.987455 0.000125924 10
14.0035 -12.6088 -0.328916 0.000126662 10
13.9971 -12.6031 0.328766 0.000126587 10
13.9993 -12.605 0.987255 0.000125701 10
13.5759 -12.2238 1.59826 0.000150161 10
13.578 -12.2257 2.2434 0.000147286 10
13.5941 -12.2402 2.89728 0.000143528 10
13.5871 -12.2339 3.55391 0.000138945 10
13.5943 -12.2404 4.22326 0.000133604 10
13.585 -12.232 4.89824 0.000127583 10
7.16707 -6.4081 -2.57609 0.00024421 4
8.33913 -7.45605 -2.58257 0.000143773 4
10.6539 -9.5257 -2.77797 5.84301e-05 1
14.0844 -12.5929 -2.31979 0.000163798 10
14.0801 -12.589 -1.65243 0.000110293 10
14.0704 -12.5804 -0.989164 0.000111704 10
14.0875 -12.5956 -0.329853 0.000112405 10
14.0792 -12.5883 0.329659 0.000112383 10
14.0876 -12.5957 0.990372 0.000111641 10
13.6709 -12.2232 1.60441 0.000147147 10
13.6887 -12.2391 2.25462 0.000144325 10
13.6836 -12.2345 2.90722 0.000140637 10
13.6768 -12.2285 3.56618 0.000136138 10
13.6796 -12.231 4.23647 0.000130897 10
13.6888 -12.2392 4.92023 0.000124988 10
7.19732 -6.39008 -2.57892 0.000208284 4
8.35736 -7.42001 -2.58017 0.000125182 4
10.6863 -9.48773 -2.77776 5.84248e-05 1
14.1682 -12.5791 -2.32634 0.000160437 10
14.2582 -12.6591 -1.66814 0.000118434 10
14.2669 -12.6668 -0.999866 0.000119908 10
14.2638 -12.664 -0.332945 0.000120614 10
14.2769 -12.6756 0.333251 0.000120543 10
14.1909 -12.5993 0.994541 0.000129087 10
13.7863 -12.2401 1.61293 0.000144169 10
13.7781 -12.2328 2.26229 0.000141398 10
13.7761 -12.231 2.91779 0.000137779 10
13.7697 -12.2253 3.57925 0.000133365 10
13.7877 -12.2413 4.25669 0.000128221 10
13.7731 -12.2283 4.93515 0.000122424 10
7.21079 -6.35716 -2.57578 0.000233409 4
8.37768 -7.38592 -2.57847 0.000113438 4
10.7265 -9.45672 -2.77963 5.84193e-05 1
14.2811 -12.5905 -2.33766 0.000157116 10
14.2867 -12.5954 -1.66632 0.000105801 10
14.2703 -12.5809 -0.997016 0.000107159 10
14.2725 -12.5829 -0.332121 0.000107832 10
14.2848 -12.5938 0.332407 0.000107812 10
14.2928 -12.6008 0.998592 0.000126422 10
13.8747 -12.2322 1.61827 0.000141225 10
13.874 -12.2316 2.27101 0.000138506 10
13.8748 -12.2323 2.92964 0.000134955 10
13.8667 -12.2251 3.59335 0.000130624 10
13.8839 -12.2403 4.27318 0.000125577 10
13.873 -12.2307 4.9556 0.00011989 10
7.23027 -6.32962 -2.57484 0.000219032 4
8.41734 -7.36883 -2.58275 0.000118319 4
10.7495 -9.4105 -2.77705 5.8414e-05 1
14.372 -12.5817 -2.34533 0.000153835 10
14.7091 -12.8768 -1.71033 0.000161926 10
14.7144 -12.8815 -1.0249 0.000163963 10
14.7134 -12.8806 -0.341331 0.000164941 10
14.7276 -12.893 0.34166 0.000164843 10
14.3715 -12.5813 1.00101 0.000123788 10
13.9775 -12.2363 1.62526 0.000138316 10
13.9787 -12.2374 2.28115 0.000135649 10
13.9717 -12.2313 2.94106 0.000132165 10
13.9812 -12.2396 3.61192 0.000127916 10
13.9802 -12.2387 4.28962 0.000122966 10
13.9813 -12.2397 4.97899 0.000117387 10
7.25928 -6.3104 -2.57731 0.000245948 4
8.43784 -7.3349 -2.58116 0.000113422 4
10.7858 -9.37592 -2.77794 5.84088e-05 1
14.4733 -12.5814 -2.35467 0.000150595 10
14.7066 -12.7842 -1.70484 0.000164596 10
14.7153 -12.7918 -1.02185 0.000166665 10
14.7081 -12.7855 -0.340171 0.000167658 10
14.7234 -12.7989 0.340525 0.000167559 10
14.4847 -12.5913 1.00583 0.000121187 10
14.4846 -12.5913 1.67911 0.0001196 10
14.3433 -12.4684 3.69421 3.46467e-05 10
14.4953 -12.6006 4.43417 0.000106146 10
14.4958 -12.601 5.14654 0.000101262 10
7.28375 -6.28717 -2.57819 0.000236958 4
8.4511 -7.2948 -2.57742 0.000145678 4
10.8188 -9.33856 -2.77805 5.84035e-05 1
14.5842 -12.5888 -2.36556 0.000147396 10
14.713 -12.6999 -1.70043 0.000167288 10
14.7074 -12.6951 -1.01821 0.000169388 10
14.7144 -12.7011 -0.33929 0.000170396 10
14.7185 -12.7047 0.339384 0.000170296 10
14.5771 -12.5826 1.00919 0.000118619 10
14.588 -12.592 1.68599 0.000117062 10
14.6561 -12.6508 2.37722 7.15841e-05 10
14.6694 -12.6623 3.06925 6.97117e-05 10
14.3868 -12.4183 3.69422 3.46501e-05 10
14.5932 -12.5965 4.45062 0.000103871 10
14.5964 -12.5993 5.16661 9.90833e-05 10
7.30388 -6.26019 -2.57756 0.000262075 4
8.48863 -7.27564 -2.5811 0.000125138 4
10.8539 -9.30288 -2.77869 5.83983e-05 1
14.6978 -12.5976 -2.37684 0.000144237 10
14.7249 -12.6208 -1.69671 0.000170001 10
14.7117 -12.6095 -1.01546 0.000172133 10
14.7262 -12.6219 -0.338545 0.000173156 10
14.729 -12.6243 0.338609 0.000173054 10
14.6842 -12.5859 1.01356 0.000116083 10
14.693 -12.5935 1.69304 0.000114556 10
14.6923 -12.5928 2.37594 8.3419e-05 10
14.6954 -12.5955 3.06547 8.12056e-05 10
14.4192 -12.3588 3.69145 3.46535e-05 10
14.6859 -12.5874 4.46548 0.000101626 10
14.7033 -12.6023 5.18885 9.69332e-05 10
7.32687 -6.23566 -2.57798 0.00026565 4
8.51756 -7.24901 -2.58219 0.000130017 4
10.8802 -9.25981 -2.77715 5.83931e-05 1
14.7983 -12.5944 -2.38597 0.000141119 10
14.7941 -12.5908 -1.69961 0.000143891 10
14.7923 -12.5892 -1.01798 0.000145754 10
14.7919 -12.5889 -0.339041 0.000146678 10
14.8031 -12.5984 0.339299 0.000146649 10
14.7947 -12.5913 1.01815 0.000113579 10
14.7867 -12.5844 1.69875 0.000112083 10
14.7285 -12.535 2.37472 0.000131604 10
14.7175 -12.5256 3.06094 0.000128114 10
14.462 -12.3082 3.69139 3.46569e-05 10
14.7856 -12.5835 4.4824 9.94097e-05 10
14.7985 -12.5945 5.2069 9.4811e-05 10
7.34571 -6.2076 -2.57697 0.000244097 4
8.53506 -7.21269 -2.57984 0.000106548 4
10.9158 -9.22461 -2.778 5.83879e-05 1
14.8959 -12.588 -2.3946 0.000138041 10
14.8875 -12.5809 -1.70528 0.000140758 10
14.8893 -12.5825 -1.02163 0.000142583 10
14.9002 -12.5916 -0.340514 0.000143489 10
14.9013 -12.5926 0.34054 0.00014346 10
14.8966 -12.5886 1.02213 0.000111108 10
14.9101 -12.6 1.70787 0.000109641 10
14.7325 -12.4499 2.36833 0.000133708 10
14.7307 -12.4484 3.05462 0.000130167 10
14.5157 -12.2667 3.69414 3.46602e-05 10
14.9089 -12.599 4.50644 9.72227e-05 10
14.9127 -12.6022 5.23154 9.2717e-05 10
7.3729 -6.1866 -2.57891 0.000213573 4
8.56192 -7.18431 -2.58037 0.00011827 4
10.9511 -9.18909 -2.7788 5.83829e-05 1
14.9952 -12.5825 -2.40349 0.000135003 10
15.009 -12.594 -1.71415 0.000137665 10
15.0035 -12.5894 -1.02644 0.000139454 10
15.003 -12.589 -0.341857 0.000140341 10
14.9951 -12.5824 0.341677 0.000140313 10
14.9952 -12.5824 1.02587 0.000108669 10
15.0064 -12.5918 1.71385 0.000107232 10
14.7305 -12.3604 2.36106 0.000135828 10
14.724 -12.3549 3.04428 0.000132235 10
14.576 -12.2307 3.6986 0.000112364 10
15.0028 -12.5888 4.52149 9.50648e-05 10
15.018 -12.6016 5.25303 9.06511e-05 10
7.39336 -6.15992 -2.57853 0.000299704 4
8.60002 -7.16526 -2.58429 0.000130968 4
10.9805 -9.14859 -2.77813 5.83778e-05 1
15.1186 -12.5964 -2.41621 0.000132007 10
15.1097 -12.5889 -1.72063 0.000134614 10
15.1094 -12.5887 1.03067 0.000106262 10
15.1071 -12.5868 1.72033 0.000104855 10
14.7152 -12.2602 2.35173 0.000137963 10
14.7256 -12.2689 3.03573 0.000134319 10
14.6888 -12.2382 3.71635 0.000109888 10
15.1153 -12.5936 4.54212 9.2936e-05 10
15.1111 -12.5901 5.2702 8.86132e-05 10
7.41958 -6.13801 -2.58019 0.000211755 4
8.61083 -7.1235 -2.58006 0.000138778 4
11.0039 -9.10322 -2.776 5.83728e-05 1
15.2276 -12.5973 -2.42658 0.00012905 10
15.2072 -12.5805 -1.72672 0.000131604 10
15.2111 -12.5837 1.03461 0.000103888 10
15.2104 -12.5831 1.72707 0.000102509 10
14.7791 -12.2264 2.35512 0.000114038 10
14.7856 -12.2317 3.03929 0.000111067 10
14.776 -12.2238 3.72761 0.000107445 10
15.2296 -12.599 4.56324 9.08365e-05 10
15.2185 -12.5899 5.29231 8.66034e-05 10
7.4392 -6.11062 -2.57958 0.000209949 4
8.64737 -7.10303 -2.58356 0.000132905 4
11.0453 -9.0727 -2.77843 5.83678e-05 1
15.3222 -12.5858 -2.43464 0.000126134 10
15.3317 -12.5936 -1.73585 0.000128635 10
15.3243 -12.5875 1.03932 0.000101546 10
15.3294 -12.5917 1.73559 0.000100196 10
15.3206 -12.5845 2.43439 9.82072e-05 10
15.3304 -12.5926 3.14223 9.56112e-05 10
15.3394 -12.5999 3.8586 9.24478e-05 10
15.3391 -12.5997 4.58283 8.8766e-05 10
15.3261 -12.589 5.31439 8.46216e-05 10
7.46102 -6.08506 -2.57977 0.000233265 4
8.67247 -7.07309 -2.58366 0.000151463 4
11.0659 -9.02509 -2.77566 5.83629e-05 1
15.4397 -12.5923 -2.44632 0.000123258 10
15.4236 -12.5792 -1.74127 0.000125707 10
15.4469 -12.5982 1.04464 9.92368e-05 10
15.4368 -12.59 1.74276 9.79146e-05 10
15.429 -12.5836 2.44461 9.59675e-05 10
15.4366 -12.5898 3.15495 9.34257e-05 10
15.4422 -12.5944 3.87339 9.03288e-05 10
15.442 -12.5942 4.60043 8.67245e-05 10
15.4308 -12.585 5.33542 8.26678e-05 10
7.46515 -6.04517 -2.57388 0.000163276 4
8.68614 -7.0339 -2.58041 0.000121162 4
11.1011 -8.98954 -2.77663 5.8358e-05 1
15.5482 -12.5907 -2.45653 0.000120423 10
15.5436 -12.587 -1.74985 0.00012282 10
15.5487 -12.5911 1.04855 9.69597e-05 10
15.5439 -12.5872 1.74989 9.56654e-05 10
15.5516 -12.5934 2.45706 9.37593e-05 10
15.5535 -12.595 3.16985 9.12712e-05 10
15.5566 -12.5975 3.89103 8.82399e-05 10
15.5426 -12.5861 4.61726 8.47122e-05 10
15.5576 -12.5983 5.36405 8.0742e-05 10
7.50323 -6.03276 -2.57974 0.000276299 4
8.72306 -7.01352 -2.58409 0.000134833 4
11.1482 -8.96342 -2.78056 5.83531e-05 1
15.651 -12.5837 -2.46581 0.000117628 10
15.6471 -12.5806 -1.75654 0.000119974 10
15.6677 -12.5972 1.0536 9.47149e-05 10
15.6702 -12.5992 1.75914 9.34479e-05 10
15.6523 -12.5848 2.46602 9.15824e-05 10
15.6646 -12.5947 3.18351 8.91474e-05 10
15.6696 -12.5987 3.90826 8.61808e-05 10
15.665 -12.595 4.64056 8.27288e-05 10
15.6633 -12.5936 5.3853 7.8844e-05 10
7.52394 -6.00629 -2.57963 0.000211699 4
8.73344 -6.97181 -2.57994 0.000132871 4
11.1764 -8.92198 -2.77979 5.83483e-05 1
15.7774 -12.5949 -2.47878 0.000114874 10
15.7692 -12.5884 -1.76531 0.000117169 10
15.7818 -12.5985 1.05831 9.25021e-05 10
15.779 -12.5962 1.76641 9.12623e-05 10
15.78 -12.597 2.4792 8.94368e-05 10
15.762 -12.5827 3.19436 8.70542e-05 10
15.7729 -12.5913 3.92304 8.41516e-05 10
15.775 -12.593 4.66008 8.07742e-05 10
15.7715 -12.5902 5.40735 7.69738e-05 10
7.56197 -5.99354 -2.58548 0.000503495 4
8.76305 -6.94551 -2.58151 0.000100624 4
11.2083 -8.88356 -2.78 5.83436e-05 1
15.8776 -12.5844 -2.48761 0.000112159 10
15.8817 -12.5877 -1.77297 0.000114404 10
15.8819 -12.5878 1.06207 9.03215e-05 10
15.894 -12.5974 1.77435 8.91085e-05 10
15.8782 -12.5849 2.48771 8.73224e-05 10
15.8941 -12.5975 3.21219 8.49916e-05 10
15.8968 -12.5997 3.94291 8.21521e-05 10
15.8903 -12.5945 4.68113 7.88485e-05 10
15.887 -12.5919 5.43184 7.51314e-05 10
7.59991 -5.98054 -2.5913 0.000649983 4
8.7816 -6.91044 -2.57985 0.000113316 4
11.2319 -8.83863 -2.77819 5.83388e-05 1
15.9855 -12.5794 -2.49762 0.000109485 10
15.9957 -12.5874 -1.78079 0.000111681 10
16.0007 -12.5913 1.06707 8.8173e-05 10
15.9909 -12.5836 1.78026 8.69865e-05 10
15.9981 -12.5893 2.49959 8.52394e-05 10
16.0014 -12.5918 3.22497 8.29596e-05 10
15.9911 -12.5837 3.95536 8.01825e-05 10
15.9935 -12.5856 4.69855 7.69516e-05 10
15.9966 -12.5881 5.45429 7.33167e-05 10
7.64551 -5.97333 -2.59972 0.000614622 4
8.81725 -6.88879 -2.58324 0.000142614 4
11.2689 -8.80419 -2.77971 5.83341e-05 1
16.1008 -12.5794 -2.50877 0.00010685 10
16.1181 -12.5929 -1.78951 0.000108997 10
16.1241 -12.5975 1.07235 8.60565e-05 10
16.1068 -12.584 1.78825 8.4896e-05 10
16.1095 -12.5861 2.51011 8.31875e-05 10
16.1218 -12.5958 3.24037 8.09581e-05 10
16.1143 -12.5899 3.97495 7.82425e-05 10
16.1075 -12.5846 4.71912 7.50834e-05 10
16.117 -12.592 5.48031 7.15297e-05 10
7.70488 -5.97652 -2.6128 0.000371084 4
8.83634 -6.85416 -2.58181 0.000116233 4
11.3033 -8.76772 -2.78064 5.83295e-05 1
16.2373 -12.595 -2.52317 0.000104256 10
16.2255 -12.5858 -1.79654 0.000106355 10
16.2363 -12.5941 1.07689 8.3972e-05 10
16.2239 -12.5845 1.79636 8.28372e-05 10
16.2354 -12.5935 2.52287 8.11667e-05 10
16.2294 -12.5888 3.25314 7.8987e-05 10
16.23 -12.5893 3.99263 7.63321e-05 10
16.2288 -12.5884 4.74175 7.3244e-05 10
16.2233 -12.5841 5.50149 6.97702e-05 10
7.74775 -5.96657 -2.62026 0.000281589 4
8.86025 -6.82331 -2.58182 0.000131853 4
11.3147 -8.71351 -2.77596 5.83249e-05 1
16.3541 -12.5944 -2.53447 0.000101701 10
16.3424 -12.5853 -1.80461 0.000103753 10
16.3527 -12.5933 1.08169 8.19193e-05 10
16.3573 -12.5968 1.80626 8.08099e-05 10
16.3498 -12.591 2.5338 7.91769e-05 10
16.3401 -12.5836 3.2665 7.70462e-05 10
16.3411 -12.5843 4.00912 7.44513e-05 10
16.3548 -12.5949 4.76568 7.1433e-05 10
16.3604 -12.5992 5.53304 6.80381e-05 10
7.80101 -5.96433 -2.63121 0.000227743 4
8.88646 -6.79421 -2.58253 0.000124032 4
11.3527 -8.67979 -2.77782 5.83203e-05 1
16.4544 -12.5803 -2.54319 9.91858e-05 10
16.465 -12.5884 -1.81329 0.000101191 10
16.4551 -12.5808 1.08555 7.98985e-05 10
16.4584 -12.5834 1.81256 7.88141e-05 10
16.4594 -12.5841 2.54396 7.72182e-05 10
16.4601 -12.5847 3.28169 7.51358e-05 10
16.4659 -12.5891 4.02893 7.25999e-05 10
16.4622 -12.5863 4.78414 6.96506e-05 10
16.4643 -12.5879 5.55326 6.63336e-05 10
7.84538 -5.95497 -2.63915 0.000542535 4
8.90353 -6.75815 -2.58062 0.000128907 4
11.3837 -8.64067 -2.778 5.83158e-05 1
16.5906 -12.5929 -2.55743 9.67101e-05 10
16.5904 -12.5928 -1.82225 9.86694e-05 10
19.7524 -14.9929 -1.29961 3.78223e-05 10
19.7643 -15.0019 -0.433112 3.80759e-05 10
19.7536 -14.9938 0.432879 3.80521e-05 10
16.5819 -12.5864 1.09101 7.79091e-05 10
16.5868 -12.5901 1.82185 7.68496e-05 10
16.5914 -12.5936 2.55755 7.52901e-05 10
16.5787 -12.5839 3.29655 7.32554e-05 10
16.5907 -12.593 4.0487 7.07778e-05 10
16.5968 -12.5977 4.81047 6.78965e-05 10
16.5911 -12.5933 5.58116 6.46563e-05 10
7.8998 -5.95293 -2.65045 0.000458066 4
8.93325 -6.73169 -2.58241 0.000102533 4
11.4113 -8.59906 -2.77741 5.83113e-05 1
16.6914 -12.5779 -2.56618 9.42739e-05 10
16.7035 -12.587 -1.82983 9.61879e-05 10
19.804 -14.9234 -0.432838 2.88431e-05 10
19.8 -14.9203 0.43275 2.88362e-05 10
16.7061 -12.589 1.09628 7.59514e-05 10
16.7133 -12.5944 1.83091 7.49163e-05 10
16.7063 -12.5891 2.56848 7.33927e-05 10
16.7109 -12.5926 3.3141 7.14051e-05 10
16.7013 -12.5853 4.06494 6.8985e-05 10
16.7181 -12.598 4.83285 6.61707e-05 10
16.7175 -12.5975 5.60886 6.30062e-05 10
7.95228 -5.94907 -2.66108 0.000407624 4
8.94734 -6.69347 -2.57971 0.000123033 4
11.445 -8.56193 -2.77831 5.83068e-05 1
16.8361 -12.595 -2.58165 9.18769e-05 10
16.8317 -12.5917 -1.83905 9.37462e-05 10
16.8305 -12.5909 1.10156 7.40251e-05 10
16.8351 -12.5942 1.83941 7.3014e-05 10
16.834 -12.5934 2.58133 7.15259e-05 10
16.8349 -12.5941 3.32994 6.95847e-05 10
16.8221 -12.5845 4.08362 6.72213e-05 10
16.831 -12.5912 4.85274 6.44731e-05 10
16.8315 -12.5916 5.63235 6.13832e-05 10
7.98118 -5.92735 -2.66381 0.000479379 4
8.98489 -6.67277 -2.58381 0.000133766 4
11.4643 -8.51411 -2.77576 5.83024e-05 1
16.9461 -12.5853 -2.59178 8.95191e-05 10
16.9557 -12.5924 -1.84778 9.13443e-05 10
19.7535 -14.6702 -1.2895 3.96475e-05 10
19.762 -14.6765 -0.42967 3.99125e-05 10
19.7591 -14.6744 0.429607 3.98879e-05 10
16.9472 -12.5861 1.10631 7.21301e-05 10
16.9535 -12.5908 1.84754 7.11427e-05 10
16.934 -12.5763 2.58992 9.38681e-05 10
16.9436 -12.5835 3.34274 9.12825e-05 10
16.9546 -12.5916 4.1051 6.54866e-05 10
16.9515 -12.5893 4.87479 6.28035e-05 10
16.9451 -12.5846 5.65563 8.0413e-05 10
8.04378 -5.93039 -2.67778 0.00035691 4
8.99453 -6.63134 -2.57991 0.000123019 4
11.4975 -8.47671 -2.77663 5.82981e-05 1
17.0611 -12.5785 -2.60262 8.72003e-05 10
17.063 -12.58 -1.85468 8.8982e-05 10
19.8891 -14.6635 -1.29501 2.88405e-05 10
19.8769 -14.6545 -0.431054 2.90446e-05 10
19.8872 -14.6621 0.431278 2.90376e-05 10
17.0679 -12.5835 1.11132 7.02664e-05 10
17.0709 -12.5858 1.85554 6.93024e-05 10
16.9561 -12.5011 2.58661 9.52292e-05 10
16.9525 -12.4984 3.33585 9.26094e-05 10
17.0669 -12.5828 4.12163 6.37808e-05 10
17.0815 -12.5936 4.89951 6.11619e-05 10
16.9426 -12.4912 5.64021 8.15947e-05 10
8.09265 -5.92292 -2.68714 0.000487438 4
9.03244 -6.61074 -2.58414 0.000117154 4
11.5398 -8.44583 -2.77969 5.82937e-05 1
17.1883 -12.5799 -2.61532 8.49202e-05 10
17.1965 -12.5859 -1.8644 8.66592e-05 10
19.7581 -14.4607 -1.28318 4.08858e-05 10
19.7519 -14.4562 -0.427246 4.11585e-05 10
19.7495 -14.4545 0.427194 4.11332e-05 10
17.2036 -12.5911 1.11728 6.84337e-05 10
17.2082 -12.5945 1.86567 6.74926e-05 10
16.9509 -12.4062 2.57919 9.65983e-05 10
16.9568 -12.4105 3.32816 9.39442e-05 10
17.2093 -12.5953 4.14538 6.21037e-05 10
17.2111 -12.5966 4.92402 5.95481e-05 10
16.9435 -12.4008 5.62604 8.27836e-05 10
8.1184 -5.89836 -2.68884 9.67272e-05 4
9.03904 -6.56724 -2.57946 0.000153268 4
11.5729 -8.40817 -2.78058 5.82895e-05 1
17.312 -12.5779 -2.62744 8.26788e-05 10
