VERSION 0.7
FIELDS x y z intensity label
SIZE 4 4 4 4 4
TYPE F F F F F
COUNT 1 1 1 1 1
WIDTH 1322
HEIGHT 1
VIEWPOINT 47.841 6.81786 2.72642 0.999891 -4.39943e-05 0.000801654 -0.0147495
POINTS 1322
DATA ascii
28.1276 9.1392 4.68424 0.450856 10
28.1259 9.13865 5.74847 0.471214 10
28.0128 9.10192 6.80009 0.169677 10
28.1224 9.13753 7.92317 0.331888 10
9.3371 3.06988 -2.63362 0.0480381 4
10.8267 3.55965 -2.63118 0.0402236 4
12.8429 4.22254 -2.62788 0.0842948 4
15.7333 5.17285 -2.62314 0.00983847 4
20.2379 6.65388 -2.61576 0.0176499 4
28.1343 9.25009 -1.55211 0.23465 10
28.1327 9.24955 -0.516918 0.042291 10
28.1086 9.24164 0.516476 0.253761 10
28.1648 9.26011 1.55379 0.215916 10
28.1277 9.24793 2.59045 0.341834 10
28.1261 9.24738 3.63532 0.186631 10
28.1244 9.24683 4.68905 0.390031 10
28.1227 9.24628 5.75438 0.15691 10
28.0097 9.2091 6.80708 0.224477 10
28.1193 9.24514 7.93132 0.20892 10
9.32637 3.10247 -2.63364 0.0210166 4
10.8143 3.59744 -2.6312 0.0386562 4
12.8282 4.26737 -2.6279 0.0922799 4
15.7153 5.22778 -2.62317 0.014211 4
20.2148 6.72456 -2.61579 0.018219 4
28.1328 9.35854 -2.59391 0.144969 10
28.1312 9.35799 -1.55372 0.262534 10
28.1295 9.35744 -0.517457 0.131435 10
28.1054 9.34944 0.517014 0.26758 10
28.1616 9.36812 1.55541 0.225069 10
28.1246 9.35579 2.59315 0.275989 10
28.1229 9.35524 3.6391 0.172454 10
28.1212 9.35468 4.69394 0.43137 10
28.0619 9.33494 5.74857 0.580886 10
28.0065 9.31651 6.81417 0.146445 10
28.0583 9.33374 7.92326 0.199629 10
9.31554 3.13502 -2.63365 0.0264207 4
10.8018 3.63519 -2.63121 0.0355217 4
12.8133 4.31216 -2.62792 0.0860682 4
15.6971 5.28265 -2.62319 0.0149396 4
28.1296 9.46666 -2.59665 0.369047 10
28.128 9.46611 -1.55536 0.220109 10
28.1263 9.46555 -0.518003 0.145364 10
28.1023 9.45746 0.51756 0.229782 10
28.1584 9.47635 1.55705 0.18736 10
28.1214 9.46388 2.59589 0.308408 10
28.0907 9.45356 3.63918 0.138141 10
28.118 9.46276 4.69889 0.467984 10
28.1163 9.46219 5.76645 0.488167 10
28.0033 9.42415 6.82136 0.214864 10
9.30459 3.16754 -2.63366 0.037229 4
10.7891 3.6729 -2.63123 0.0924604 4
12.7983 4.35689 -2.62794 0.0244006 4
15.6787 5.33746 -2.62321 0.0127532 4
28.1248 9.57445 -1.55703 0.196483 10
28.1231 9.57389 -0.518556 0.0843148 10
27.9953 9.53038 0.516199 0.111031 10
28.1552 9.58482 1.55871 0.271382 10
28.1182 9.5722 2.59866 0.266068 10
28.1165 9.57164 3.64683 0.251156 10
28.1148 9.57106 4.70391 0.467484 10
28.1131 9.57049 5.77261 0.676264 10
28.0001 9.53201 6.82864 0.305969 10
28.1096 9.56931 7.95644 0.439158 10
9.29352 3.20001 -2.63368 0.0438339 4
10.7762 3.71056 -2.63125 0.0480582 4
12.7831 4.40157 -2.62795 0.0399279 4
15.6601 5.39221 -2.62324 0.0302431 4
28.0737 9.66656 -1.55606 0.439273 10
28.0721 9.66599 -0.518234 0.116977 10
27.9299 9.61703 0.515609 0.0935874 10
28.152 9.69351 1.5604 0.247719 10
28.115 9.68075 2.60147 0.293758 10
28.1133 9.68017 3.65078 0.246239 10
28.1116 9.6796 4.70899 0.494721 10
28.1099 9.67901 5.77885 0.326278 10
27.9969 9.6401 6.83603 0.28283 10
28.1064 9.67781 7.96504 0.104018 10
9.28235 3.23245 -2.63369 0.0180138 4
10.7633 3.74817 -2.63126 0.0224619 4
12.7677 4.44619 -2.62797 0.0141965 4
15.6413 5.44689 -2.62326 0.012753 4
28.1184 9.79184 -1.56042 0.238068 10
28.1167 9.79127 -0.519686 0.200981 10
27.9267 9.7251 0.516174 0.107508 10
28.1488 9.80244 1.56211 0.20076 10
28.1117 9.78954 2.60432 0.223571 10
28.1101 9.78896 3.65477 0.269174 10
28.1084 9.78837 4.71415 0.457232 10
28.1067 9.78778 5.78518 0.0963992 10
27.9937 9.74843 6.84351 0.314418 10
28.1032 9.78657 7.97376 0.243949 10
9.27106 3.26485 -2.63371 0.0240183 4
10.7502 3.78575 -2.63128 0.0386551 4
12.7522 4.49077 -2.62799 0.0173019 4
15.6224 5.5015 -2.62328 0.0182184 4
20.0955 7.07674 -2.61594 0.0170793 4
28.1151 9.9009 -1.56215 0.107245 10
28.1135 9.90032 -0.520262 0.158739 10
28.1456 9.91161 1.56384 0.205201 10
28.1085 9.89857 2.60721 0.32568 10
28.1069 9.89798 3.65883 0.278148 10
28.1052 9.89738 4.71937 0.470566 10
28.0459 9.8765 5.77972 0.591511 10
27.9905 9.85699 6.85109 0.323173 10
28.1 9.89556 7.9826 0.320393 10
9.25965 3.29721 -2.63372 0.0384291 4
10.737 3.82327 -2.6313 0.0313417 4
12.7366 4.53529 -2.62801 0.0212944 4
15.6032 5.55605 -2.62331 0.0160321 4
26.8372 9.55631 -2.49237 0.0263924 4
28.0641 9.99318 -1.56124 0.405212 10
28.0625 9.99259 -0.51996 0.163225 10
27.9203 9.94197 0.517326 0.410418 10
28.1423 10.021 1.56559 0.218946 10
28.1053 10.0078 2.61013 0.278841 10
28.1036 10.0072 3.66293 0.282467 10
28.1019 10.0066 4.72467 0.479255 10
28.1002 10.006 5.79809 0.366417 10
27.9872 9.9658 6.85878 0.250065 10
28.0967 10.0048 7.99155 0.234391 10
9.24814 3.32954 -2.63374 0.0246185 4
10.7237 3.86075 -2.63131 0.0229838 4
12.7208 4.57976 -2.62803 0.0226252 4
15.5839 5.61054 -2.62333 0.030242 4
20.0461 7.21703 -2.61601 0.0566451 4
26.8042 9.65009 -2.49241 0.0257782 4
28.1087 10.1197 -1.56568 0.246573 10
28.107 10.1192 -0.521437 0.195648 10
28.083 10.1105 0.520991 0.172366 10
28.1391 10.1307 1.56737 0.17682 10
28.1021 10.1174 2.61309 0.315662 10
28.0547 10.1003 3.66112 0.601296 10
28.0987 10.1161 4.73003 0.455696 10
28.097 10.1155 5.80467 0.388877 10
27.984 10.0749 6.86656 0.204367 10
28.0897 10.1129 7.99955 0.0656598 10
9.23652 3.36182 -2.63375 0.0150112 4
10.7102 3.89819 -2.63133 0.0626826 4
12.7048 4.62417 -2.62806 0.0243995 4
15.5643 5.66496 -2.62336 0.0109307 4
20.021 7.28705 -2.61604 0.0472511 4
26.7708 9.74377 -2.49245 0.0282328 4
28.1055 10.2295 -1.56747 0.236996 10
28.1038 10.2289 -0.522036 0.204729 10
28.0797 10.2202 0.521589 0.167515 10
28.1358 10.2406 1.56917 0.223095 10
28.0988 10.2271 2.6161 0.32921 10
28.0971 10.2265 3.6713 0.258723 10
28.0954 10.2259 4.73546 0.48276 10
28.0937 10.2253 5.81134 0.365582 10
27.9808 10.1842 6.87445 0.204132 10
28.0902 10.224 8.00981 0.143912 10
9.22478 3.39406 -2.63377 0.0258191 4
10.6966 3.93558 -2.63135 0.0919339 4
12.6887 4.66853 -2.62808 0.0164141 4
15.5446 5.71931 -2.62338 0.0320632 4
28.1022 10.3396 -1.5693 0.273854 10
28.1005 10.339 -0.522643 0.195196 10
28.0765 10.3301 0.522196 0.218447 10
28.1326 10.3508 1.57099 0.222836 10
28.0956 10.3372 2.61914 0.356616 10
28.0939 10.3365 3.67557 0.304569 10
28.0922 10.3359 4.74097 0.477607 10
28.0905 10.3353 5.81809 0.292126 10
27.9775 10.2937 6.88244 0.18124 10
28.087 10.334 8.01912 0.143745 10
9.21293 3.42626 -2.63378 0.0624458 4
10.6829 3.97292 -2.63137 0.022461 4
12.6724 4.71283 -2.6281 0.0660994 4
15.5247 5.77359 -2.62341 0.0225898 4
26.703 9.93077 -2.49254 0.0237311 4
28.099 10.4499 -1.57114 0.222535 10
28.0973 10.4493 -0.523258 0.199609 10
28.0732 10.4403 0.52281 0.246044 10
28.1293 10.4612 1.57284 0.148383 10
28.0923 10.4474 2.62222 0.328441 10
28.0906 10.4468 3.67989 0.304211 10
28.0889 10.4462 4.74654 0.522916 10
28.0296 10.4241 5.81299 0.423997 10
27.9787 10.4052 6.89163 0.11643 10
28.0837 10.4442 8.02854 0.152549 10
9.20097 3.45841 -2.6338 0.00600437 4
10.669 4.01021 -2.63138 0.0104469 4
12.656 4.75707 -2.62812 0.0177446 4
15.5046 5.8278 -2.62344 0.0433573 4
28.0479 10.5425 -1.57034 0.486216 10
28.0463 10.5419 -0.52299 0.199372 10
28.07 10.5508 0.523432 0.273573 10
28.1261 10.5719 1.57471 0.120418 10
28.089 10.558 2.62534 0.249504 10
28.0874 10.5573 3.68427 0.257812 10
28.0857 10.5567 4.75219 0.458153 10
28.0839 10.5561 5.83186 0.277775 10
27.9862 10.5193 6.90246 0.0484362 10
28.0406 10.5397 8.02667 0.0442081 10
9.18889 3.49053 -2.63381 0.0276199 4
10.655 4.04746 -2.6314 0.021416 4
12.6394 4.80126 -2.62814 0.0337146 4
15.4843 5.88195 -2.62346 0.0138451 4
26.634 10.1173 -2.49263 0.0278217 4
28.0924 10.6713 -1.57491 0.198878 10
28.0908 10.6707 -0.524511 0.254704 10
28.0667 10.6615 0.524061 0.273244 10
28.1228 10.6828 1.57661 0.120273 10
28.0858 10.6688 2.62849 0.309197 10
28.0841 10.6681 3.6887 0.294288 10
28.0824 10.6675 4.75791 0.521667 10
28.0807 10.6668 5.83887 0.350213 10
28.0789 10.6662 6.93448 0.036119 10
28.0772 10.6655 8.04776 0.147709 10
9.17671 3.52261 -2.63383 0.0324232 4
10.6409 4.08465 -2.63142 0.00940207 4
12.6227 4.84539 -2.62816 0.0412556 4
15.4639 5.93603 -2.62349 0.00874416 4
19.8921 7.63585 -2.61621 0.0173622 4
26.599 10.2104 -2.49268 0.030276 4
28.0892 10.7824 -1.57682 0.235592 10
28.0875 10.7818 -0.525149 0.661425 10
28.0634 10.7725 0.524699 0.235907 10
28.1149 10.7923 1.57826 0.0275152 10
28.0825 10.7798 2.63169 0.258119 10
28.0414 10.7641 3.688 0.134076 10
28.0791 10.7785 4.76369 0.438765 10
28.0774 10.7779 5.84598 0.35433 10
28.0756 10.7772 6.94292 0.0541127 10
28.0739 10.7765 8.05755 0.393412 10
9.16441 3.55464 -2.63385 0.0276196 4
10.6266 4.1218 -2.63144 0.0255943 4
12.6058 4.88946 -2.62818 0.0275035 4
15.4432 5.99003 -2.62352 0.00874407 4
26.5637 10.3034 -2.49272 0.0239339 4
28.0859 10.8938 -1.57876 0.28144 10
28.0842 10.8931 -0.525795 0.240223 10
28.0602 10.8838 0.525345 0.249477 10
28.1162 10.9056 1.58047 0.166125 10
28.0792 10.8912 2.63493 0.317649 10
28.0775 10.8905 3.69773 0.183481 10
28.0758 10.8899 4.76955 0.483874 10
28.0741 10.8892 5.85317 0.562602 10
28.0723 10.8885 6.95146 0.121604 10
28.0706 10.8878 8.06746 0.263441 10
9.152 3.58663 -2.63386 0.0486342 4
10.6123 4.1589 -2.63146 0.0198485 4
12.5888 4.93348 -2.62821 0.0115336 4
15.4224 6.04396 -2.62354 0.0262319 4
19.8388 7.77474 -2.61628 0.0136617 4
26.5281 10.3962 -2.49277 0.0249563 4
28.0826 11.0054 -1.58073 0.354818 10
28.0809 11.0048 -0.52645 0.12919 10
28.0569 10.9954 0.525999 0.276852 10
28.1129 11.0173 1.58243 0.124439 10
28.0759 11.0028 2.63821 0.317254 10
28.0742 11.0022 3.70233 0.13744 10
28.0725 11.0015 4.77549 0.492391 10
28.0708 11.0008 5.86045 0.312672 10
28.069 11.0001 6.9601 0.139446 10
28.0096 10.9768 8.06089 0.316628 10
9.13949 3.61858 -2.63388 0.0480335 4
10.5978 4.19595 -2.63148 0.0146251 4
12.5716 4.97744 -2.62823 0.00798476 4
15.4014 6.09783 -2.62357 0.0666721 4
28.0793 11.1174 -1.58272 0.312952 10
28.0776 11.1167 -0.527112 0.184325 10
28.0536 11.1072 0.52666 0.25807 10
28.1096 11.1294 1.58443 0.161107 10
28.0726 11.1147 2.64153 0.266342 10
28.0709 11.114 3.70699 0.12354 10
28.0692 11.1134 4.7815 0.50088 10
28.0675 11.1127 5.86782 0.307753 10
28.0657 11.112 6.96886 0.229123 10
28.0639 11.1113 8.08765 0.244967 10
9.12686 3.65048 -2.63389 0.0270187 4
10.5831 4.23295 -2.6315 0.0156697 4
12.5542 5.02133 -2.62825 0.0669826 4
15.3801 6.15161 -2.6236 0.070679 4
26.4559 10.5816 -2.49286 0.0280236 4
28.076 11.2296 -1.58473 0.312555 10
28.0743 11.2289 -0.527783 0.138068 10
28.0503 11.2193 0.52733 0.225525 10
28.1063 11.2417 1.58644 0.151708 10
28.0693 11.2269 2.64489 0.252245 10
28.0676 11.2262 3.7117 0.205639 10
28.0659 11.2255 4.78758 0.450219 10
28.0641 11.2249 5.87528 0.343523 10
28.0624 11.2242 6.97772 0.242293 10
28.0606 11.2234 8.09794 0.271346 10
9.11412 3.68234 -2.63391 0.0342234 4
10.5684 4.2699 -2.63152 0.0219374 4
12.5367 5.06517 -2.62828 0.0159692 4
15.3587 6.20533 -2.62363 0.07505 4
26.4193 10.6741 -2.49291 0.0288413 4
28.0727 11.3421 -1.58677 0.261658 10
28.071 11.3414 -0.528461 0.156276 10
28.0469 11.3317 0.528008 0.335554 10
28.103 11.3543 1.58848 0.137739 10
28.0659 11.3394 2.64829 0.201537 10
28.0642 11.3387 3.71648 0.155172 10
28.0625 11.338 4.79373 0.463267 10
28.0608 11.3373 5.88283 0.35211 10
28.0591 11.3366 6.98669 0.237501 10
28.0573 11.3359 8.10834 0.266555 10
9.10127 3.71416 -2.63393 0.0228155 4
10.5535 4.30679 -2.63154 0.0292496 4
12.5191 5.10895 -2.6283 0.0887172 4
15.3371 6.25897 -2.62366 0.0262308 4
19.7294 8.05142 -2.61642 0.0224837 4
26.3824 10.7665 -2.49296 0.0259771 4
28.0693 11.4549 -1.58883 0.19255 10
28.0676 11.4542 -0.529148 0.160664 10
28.0436 11.4444 0.528695 0.266259 10
28.0725 11.4562 1.58901 0.0463314 10
28.0626 11.4521 2.65173 0.182978 10
28.0152 11.4328 3.71525 0.56063 10
28.0592 11.4507 4.79996 0.45813 10
28.0575 11.45 5.89048 0.302061 10
28.0557 11.4493 6.99576 0.237192 10
27.9963 11.4251 8.10219 0.204094 10
9.08831 3.74593 -2.63395 0.00420282 4
10.5385 4.34364 -2.63156 0.0167139 4
12.5013 5.15266 -2.62832 0.092265 4
15.3154 6.31254 -2.62368 0.0109294 4
28.066 11.568 -1.59092 0.366281 10
28.0643 11.5673 -0.529843 0.206297 10
28.0403 11.5574 0.529389 0.247571 10
28.0963 11.5804 1.59263 0.123642 10
27.898 11.4987 2.63995 0.0725311 10
28.0576 11.5645 3.72619 0.245807 10
28.0558 11.5638 4.80626 0.452999 10
28.0541 11.5631 5.89821 0.409724 10
28.0524 11.5623 7.00495 0.259229 10
28.0506 11.5616 8.12954 0.385498 10
9.07524 3.77765 -2.63396 0.00360239 4
10.5233 4.38043 -2.63158 0.00992383 4
12.4833 5.19631 -2.62835 0.0847234 4
15.2934 6.36603 -2.62371 0.0083791 4
19.6733 8.18919 -2.61649 0.0139452 4
28.0627 11.6814 -1.59303 0.361223 10
28.0133 11.6608 -0.529644 0.238071 10
28.0369 11.6706 0.530092 0.247243 10
28.0929 11.6939 1.59475 0.109758 10
27.8835 11.6068 2.6424 0.346742 10
28.0542 11.6778 3.73114 0.277303 10
28.0525 11.6771 4.81264 0.46597 10
28.0508 11.6764 5.90604 0.481125 10
28.049 11.6757 7.01424 0.232104 10
28.0472 11.6749 8.14032 0.433663 10
9.06205 3.80933 -2.63398 0.0246162 4
10.508 4.41717 -2.6316 0.00678993 4
12.4652 5.2399 -2.62837 0.0802869 4
15.2713 6.41945 -2.62374 0.0233155 4
19.6449 8.25793 -2.61653 0.0162217 4
28.0593 11.795 -1.59517 0.4338 10
28.0576 11.7943 -0.531258 0.324623 10
28.0336 11.7842 0.530803 0.219477 10
28.0896 11.8078 1.59689 0.132447 10
27.8802 11.7197 2.64594 0.182251 10
28.0508 11.7915 3.73614 0.240613 10
28.0491 11.7908 4.8191 0.447275 10
28.0474 11.79 5.91396 0.462519 10
28.0456 11.7893 7.02365 0.169387 10
28.0438 11.7885 8.15124 0.203284 10
9.04876 3.84097 -2.634 0.027618 4
10.4926 4.45386 -2.63162 0.0313379 4
12.447 5.28343 -2.62839 0.0354856 4
15.2489 6.47279 -2.62377 0.0214937 4
28.0559 11.909 -1.59733 0.383051 10
28.0542 11.9083 -0.531979 0.315052 10
28.0302 11.8981 0.531522 0.191782 10
28.0862 11.9219 1.59905 0.0866582 10
27.8768 11.833 2.64953 0.38676 10
28.0475 11.9054 3.7412 0.244821 10
28.0458 11.9047 4.82563 0.415087 10
28.044 11.904 5.92197 0.439471 10
28.0423 11.9032 7.03317 0.213673 10
28.0405 11.9025 8.16228 0.269207 10
9.03536 3.87256 -2.63402 0.0252162 4
10.4771 4.49049 -2.63164 0.0214141 4
12.4298 5.3274 -2.62867 0.00646357 4
15.2264 6.52606 -2.6238 0.0131147 4
19.5873 8.39513 -2.61661 0.02049 4
28.0526 12.0233 -1.59952 0.318773 10
28.0509 12.0226 -0.532707 0.305502 10
28.0268 12.0123 0.53225 0.17784 10
28.0828 12.0363 1.60124 0.0910944 10
27.8735 11.9466 2.65316 0.340792 10
28.0441 12.0197 3.74633 0.104133 10
28.0424 12.019 4.83223 0.364957 10
28.0406 12.0182 5.93008 0.385131 10
28.0389 12.0175 7.0428 0.137809 10
28.0371 12.0167 8.17346 0.273246 10
9.02185 3.9041 -2.63403 0.111071 4
10.4615 4.52708 -2.63166 0.0156687 4
15.2037 6.57924 -2.62383 0.0229504 4
19.5582 8.46357 -2.61665 0.0136598 4
26.1543 11.318 -2.49327 0.0261784 4
28.0185 12.1247 -1.59998 0.0362152 10
28.0183 12.1246 -0.532889 0.0380726 10
28.0181 12.1245 0.532885 0.0525767 10
28.0179 12.1244 1.59995 0.0488914 10
28.0178 12.1244 2.67091 0.097545 10
27.9951 12.1146 3.74541 0.0949466 10
28.0174 12.1242 4.8352 0.0680575 10
27.9798 12.1079 5.92611 0.134162 10
28.0171 12.1241 7.04791 0.0459383 10
27.9761 12.1063 8.16794 0.114429 10
9.00823 3.9356 -2.63405 0.0342216 4
10.4457 4.5636 -2.63168 0.0261143 4
15.1904 6.63651 -2.62551 0.0289993 4
27.733 12.1162 -1.58608 0.0803714 10
27.7328 12.1162 -0.52826 0.0585236 10
27.7326 12.1161 0.528257 0.0475507 10
27.7325 12.116 1.58605 0.0968128 10
27.7323 12.1159 2.64771 0.102044 10
27.7321 12.1159 3.71586 0.107118 10
27.732 12.1158 4.7932 0.0271001 10
27.7318 12.1157 5.88251 0.0466856 10
27.7316 12.1156 6.9867 0.10694 10
27.7314 12.1156 8.10882 0.104247 10
8.9945 3.96705 -2.63407 0.033621 4
10.4298 4.60007 -2.6317 0.0496168 4
12.5538 5.5369 -2.66702 0.00747289 4
15.1784 6.69446 -2.62746 0.0298031 4
19.4992 8.60017 -2.61673 0.064882 4
26.0758 11.5008 -2.49337 0.0243367 4
27.5997 12.1729 -1.58088 0.30837 10
27.598 12.1722 -0.526499 0.195248 10
27.5964 12.1714 0.526467 0.331488 10
27.5947 12.1707 1.58059 0.235855 10
27.593 12.17 2.63845 0.217195 10
27.5913 12.1692 3.70267 0.315602 10
27.5896 12.1685 4.77591 0.314076 10
27.5879 12.1677 5.86097 0.267573 10
27.5862 12.167 6.96071 0.323161 10
27.5844 12.1662 8.07819 0.258938 10
8.98066 3.99845 -2.63409 0.0180111 4
10.4137 4.63649 -2.63172 0.00678961 4
12.5941 5.60723 -2.67971 0.0070141 4
15.1662 6.75244 -2.62942 0.0278124 4
19.4694 8.66831 -2.61677 0.0512219 4
26.036 11.592 -2.49342 0.0302669 4
27.5964 12.2867 -1.58313 0.330573 10
27.5947 12.2859 -0.52725 0.371804 10
27.593 12.2852 0.527218 0.299275 10
27.5913 12.2844 1.58284 0.144935 10
27.5897 12.2837 2.64221 0.375031 10
27.588 12.283 3.70795 0.387187 10
27.5863 12.2822 4.78272 0.264345 10
27.5846 12.2814 5.86932 0.382975 10
27.5828 12.2806 6.97063 0.331542 10
27.581 12.2799 8.08971 0.289247 10
8.96672 4.0298 -2.63411 0.018011 4
10.3976 4.67285 -2.63175 0.0219355 4
12.634 5.67793 -2.6924 0.00782784 4
15.154 6.81048 -2.63141 0.0268329 4
19.4393 8.73636 -2.61681 0.0512211 4
25.996 11.683 -2.49348 0.0278122 4
27.593 12.4008 -1.58541 0.406969 10
27.5913 12.4 -0.52801 0.398435 10
27.5896 12.3993 0.527977 0.280733 10
27.588 12.3985 1.58512 0.244226 10
27.5863 12.3978 2.64602 0.415099 10
27.5846 12.397 3.71329 0.485536 10
27.5829 12.3962 4.78961 0.28186 10
27.5812 12.3955 5.87777 0.404658 10
27.5794 12.3947 6.98067 0.264852 10
27.5777 12.3939 8.10135 0.148792 10
8.95266 4.0611 -2.63413 0.0438264 4
10.3813 4.70916 -2.63177 0.0297693 4
12.673 5.74872 -2.70498 0.0730687 1
15.1417 6.86856 -2.63341 0.0258645 4
28.7998 13.0642 -1.65737 0.221249 10
28.7981 13.0634 -0.551973 0.103985 10
28.7963 13.0626 0.551939 0.293888 10
28.7946 13.0618 1.65706 0.108387 10
28.7928 13.061 2.7661 0.364936 10
28.7911 13.0602 3.88181 0.251393 10
28.7893 13.0594 5.00698 0.352929 10
28.7875 13.0586 6.14452 0.337464 10
28.7857 13.0577 7.29747 0.290913 10
28.7838 13.0569 8.46902 0.358328 10
8.93849 4.09236 -2.63415 0.0204121 4
10.3649 4.74541 -2.63179 0.0120121 4
12.653 5.79298 -2.705 0.0730679 1
15.1292 6.9267 -2.63544 0.0251019 4
25.9149 11.8648 -2.49359 0.0325143 4
28.7963 13.184 -1.6598 0.275029 10
28.7946 13.1832 -0.552784 0.16252 10
28.7928 13.1824 0.55275 0.307001 10
28.791 13.1816 1.6595 0.144304 10
28.7893 13.1808 2.77017 0.449877 10
28.7875 13.18 3.88751 0.354123 10
28.7857 13.1791 5.01433 0.347951 10
28.7839 13.1783 6.15355 0.283764 10
28.7821 13.1775 7.30819 0.171651 10
28.7802 13.1766 8.48145 0.383983 10
8.92422 4.12357 -2.63417 0.0390229 4
10.3483 4.7816 -2.63181 0.0235017 4
12.6328 5.83717 -2.70503 0.0730672 1
15.1167 6.98488 -2.63748 0.0268596 4
25.8739 11.9554 -2.49364 0.026379 4
28.7928 13.3041 -1.66226 0.288127 10
28.791 13.3033 -0.553604 0.162279 10
28.7893 13.3025 0.55357 0.293022 10
28.7875 13.3017 1.66196 0.315197 10
28.7857 13.3009 2.77428 0.247066 10
28.784 13.3001 3.89327 0.344647 10
28.7822 13.2992 5.02177 0.387524 10
28.7804 13.2984 6.16267 0.225789 10
28.7785 13.2975 7.31903 0.351583 10
28.7767 13.2967 8.49403 0.0871398 10
8.90984 4.15472 -2.63419 0.041424 4
10.3317 4.81773 -2.63183 0.0114896 4
12.6125 5.88129 -2.70506 0.0730665 1
15.104 7.04312 -2.63955 0.0241773 4
25.8326 12.0459 -2.4937 0.0239246 4
28.7892 13.4246 -1.66475 0.197791 10
28.7875 13.4238 -0.554433 0.162036 10
28.7857 13.423 0.554399 0.202558 10
28.7839 13.4222 1.66445 0.175347 10
28.7822 13.4213 2.77843 0.210813 10
28.7804 13.4205 3.8991 0.41117 10
28.7786 13.4197 5.02929 0.422526 10
28.7768 13.4188 6.1719 0.190087 10
28.775 13.418 7.32999 0.364222 10
28.7731 13.4171 8.50675 0.4568 10
8.89535 4.18583 -2.63421 0.021012 4
10.3149 4.85381 -2.63186 0.0485693 4
12.592 5.92534 -2.70509 0.0730657 1
14.3546 6.75474 -2.51268 0.047717 4
19.2854 9.07501 -2.61702 0.0136579 4
25.791 12.1363 -2.49376 0.0298539 4
28.7857 13.5455 -1.66727 0.103235 10
28.7839 13.5447 -0.555272 0.211228 10
28.7821 13.5438 0.555237 0.292142 10
28.7804 13.543 1.66697 0.336697 10
28.7786 13.5422 2.78263 0.188102 10
28.7768 13.5413 3.905 0.415011 10
28.775 13.5405 5.03689 0.404124 10
28.7732 13.5397 6.18124 0.410497 10
28.7714 13.5388 7.34107 0.350528 10
28.7695 13.5379 8.51961 0.321449 10
8.88075 4.21689 -2.63423 0.0102058 4
10.298 4.88983 -2.63188 0.0235011 4
12.5714 5.96932 -2.70512 0.0730649 1
14.3311 6.80489 -2.51271 0.0480807 4
28.7821 13.6667 -1.66982 0.313713 10
28.7803 13.6659 -0.55612 0.32309 10
28.7786 13.6651 0.556085 0.336573 10
28.7768 13.6642 1.66951 0.340666 10
28.775 13.6634 2.78688 0.120738 10
28.7733 13.6625 3.91096 0.365366 10
28.7715 13.6617 5.04458 0.368035 10
28.7696 13.6608 6.19067 0.304098 10
28.7678 13.66 7.35228 0.135623 10
28.7659 13.6591 8.53261 0.390356 10
8.86604 4.2479 -2.63425 0.0210117 4
10.2809 4.92579 -2.6319 0.0318567 4
12.5506 6.01323 -2.70514 0.0730642 1
14.3074 6.85496 -2.51274 0.049537 4
19.2222 9.20973 -2.6171 0.0150801 4
25.7068 12.3166 -2.49387 0.02699 4
28.7785 13.7883 -1.67239 0.313231 10
28.7767 13.7875 -0.556977 0.219542 10
28.775 13.7867 0.556942 0.30469 10
28.7732 13.7858 1.67208 0.349093 10
28.7714 13.785 2.79118 0.24557 10
28.7697 13.7841 3.91699 0.284725 10
28.7679 13.7832 5.05236 0.168239 10
28.766 13.7824 6.20021 0.356436 10
28.7642 13.7815 7.3636 0.131046 10
8.85123 4.27885 -2.63427 0.0570314 4
10.2638 4.96169 -2.63193 0.0141004 4
12.5297 6.05707 -2.70517 0.0730634 1
14.2836 6.90495 -2.51277 0.0353311 4
25.6643 12.4066 -2.49393 0.0278072 4
28.7749 13.9103 -1.67499 0.330615 10
28.7731 13.9095 -0.557844 0.295251 10
28.7714 13.9086 0.557809 0.317638 10
28.7696 13.9078 1.67469 0.321739 10
28.7678 13.9069 2.79552 0.258562 10
28.766 13.906 3.92308 0.168793 10
28.7642 13.9052 5.06022 0.278489 10
28.7624 13.9043 6.20985 0.101053 10
28.7606 13.9034 7.37506 0.300937 10
28.7587 13.9025 8.55905 0.406446 10
8.83631 4.30975 -2.63429 0.0192104 4
10.2465 4.99753 -2.63195 0.0261116 4
12.4892 6.09139 -2.70101 0.2999 4
14.2596 6.95486 -2.51281 0.0488073 4
19.1581 9.34401 -2.61719 0.0139415 4
25.6214 12.4964 -2.49399 0.0259664 4
28.7713 14.0327 -1.67763 0.343479 10
28.7695 14.0318 -0.55872 0.343919 10
28.7678 14.031 0.558685 0.312673 10
28.766 14.0301 1.67732 0.307849 10
28.7642 14.0292 2.79991 0.351628 10
28.7624 14.0284 3.92924 0.221748 10
28.7606 14.0275 5.06816 0.189782 10
28.7588 14.0266 6.21961 0.162309 10
28.757 14.0257 7.38664 0.313529 10
28.7551 14.0248 8.57249 0.319466 10
8.82128 4.34061 -2.63431 0.0270144 4
10.229 5.03331 -2.63198 0.107057 4
12.3853 6.09434 -2.68314 0.284798 4
14.2354 7.00468 -2.51284 0.0433432 4
25.5782 12.586 -2.49405 0.029646 4
28.7677 14.1554 -1.68029 0.311759 10
28.7659 14.1546 -0.559606 0.356753 10
28.7641 14.1537 0.559571 0.245283 10
28.7624 14.1528 1.67998 0.338544 10
28.7606 14.152 2.80435 0.43995 10
28.7588 14.1511 3.93547 0.283388 10
28.757 14.1502 5.0762 0.489126 10
28.7552 14.1493 6.22946 0.372281 10
28.7533 14.1484 7.39834 0.234775 10
28.7514 14.1475 8.58607 0.327581 10
8.80614 4.37141 -2.63433 0.0216114 4
10.2115 5.06904 -2.632 0.103922 4
12.2828 6.09724 -2.66552 0.261372 4
14.2113 7.05455 -2.51292 0.0796989 4
19.093 9.47786 -2.61728 0.013372 4
28.7641 14.2786 -1.68297 0.280135 10
28.7623 14.2777 -0.560501 0.271589 10
28.7605 14.2768 0.560466 0.133577 10
28.7587 14.276 1.68266 0.306871 10
28.7569 14.2751 2.80883 0.363821 10
28.7552 14.2742 3.94177 0.331565 10
28.7533 14.2733 5.08432 0.382757 10
28.7515 14.2724 6.23943 0.39355 10
28.7497 14.2715 7.41018 0.104178 10
28.7478 14.2705 8.5998 0.146316 10
8.7909 4.40215 -2.63435 0.0600311 4
10.1938 5.1047 -2.63202 0.0945214 4
12.1816 6.1001 -2.64816 0.296472 4
14.2071 7.11439 -2.51655 0.0876665 4
19.0602 9.54461 -2.61733 0.0221914 4
25.491 12.7649 -2.49417 0.0320979 4
28.7604 14.4021 -1.68569 0.164258 10
28.7586 14.4012 -0.561406 0.302267 10
28.7569 14.4004 0.561371 0.128916 10
28.7551 14.3995 1.68538 0.270854 10
28.7515 14.3977 3.94813 0.326617 10
28.7497 14.3968 5.09253 0.267937 10
28.7479 14.3959 6.2495 0.288138 10
28.746 14.3949 7.42214 0.242689 10
28.7441 14.394 8.61369 0.35231 10
8.77555 4.43285 -2.63437 0.0306156 4
10.1761 5.1403 -2.63205 0.0986983 4
12.0817 6.1029 -2.63106 0.289768 4
14.2029 7.1744 -2.52023 0.0722844 4
19.0271 9.61125 -2.61737 0.014225 4
25.4469 12.8541 -2.49423 0.0286216 4
30.7384 15.5271 -1.80479 0.279229 10
28.755 14.5252 -0.562321 0.350592 10
28.7532 14.5243 0.562286 0.230784 10
28.7514 14.5234 1.68813 0.164021 10
28.7496 14.5225 2.81795 0.287461 10
28.7478 14.5216 3.95457 0.330492 10
28.746 14.5207 5.10082 0.350821 10
28.7442 14.5197 6.25968 0.231008 10
28.7423 14.5188 7.43423 0.281235 10
28.7404 14.5178 8.62772 0.317421 10
8.76009 4.46349 -2.63439 0.037819 4
10.1582 5.17584 -2.63207 0.101308 4
11.983 6.10566 -2.6142 0.0825667 4
14.1987 7.23457 -2.52394 0.0730032 4
25.4025 12.9432 -2.49429 0.028212 4
30.7345 15.66 -1.80776 0.30532 10
30.7326 15.6591 -0.602061 0.265836 10
30.7307 15.6581 0.602023 0.128495 10
30.7288 15.6571 1.80743 0.256694 10
30.7269 15.6561 3.0171 0.366465 10
30.725 15.6551 4.23403 0.109984 10
30.723 15.6542 5.46129 0.367759 10
30.7211 15.6532 6.70205 0.29155 10
30.7191 15.6521 7.9596 0.198702 10
30.717 15.6511 9.23743 0.364009 10
8.74453 4.49408 -2.63441 0.0228113 4
10.1401 5.21131 -2.6321 0.00417763 4
11.8856 6.10838 -2.59758 0.128904 4
14.1944 7.29492 -2.52769 0.0804785 4
18.9602 9.7442 -2.61746 0.0236127 4
25.3578 13.0321 -2.49435 0.0265759 4
30.7439 15.8002 -1.81155 0.132427 10
30.7404 15.7984 -0.603289 0.135878 10
30.7369 15.7966 0.60322 0.0835008 10
30.7334 15.7948 1.81093 0.114482 10
30.7299 15.793 3.02278 0.154643 10
30.7263 15.7912 4.24179 0.113543 10
30.7227 15.7893 5.47101 0.133986 10
30.7191 15.7875 6.71361 0.178108 10
30.7155 15.7856 7.97289 0.154512 10
30.7131 15.7844 9.25275 0.333478 10
8.72886 4.52461 -2.63444 0.0252122 4
10.122 5.24673 -2.63212 0.0736299 4
11.7894 6.11105 -2.5812 0.155451 4
14.1901 7.35543 -2.53148 0.0775386 4
18.9264 9.81049 -2.61751 0.0236123 4
8.71309 4.55509 -2.63446 0.00600287 4
10.1309 5.29631 -2.63924 0.0255848 4
11.6944 6.11368 -2.56506 0.170455 4
14.1857 7.41612 -2.53531 0.0857988 4
25.2829 13.2176 -2.496 0.0379528 4
8.69721 4.58552 -2.63448 0.0756355 4
10.1522 5.35265 -2.64964 0.00992896 4
11.6005 6.11627 -2.54914 0.136781 4
14.1814 7.47698 -2.53918 0.0746018 4
25.277 13.327 -2.5 0.0563342 4
42.8576 22.5963 -2.53914 0.39123 10
42.8574 22.5961 -0.845688 0.391709 10
42.8572 22.596 0.845682 0.391711 10
42.857 22.5959 2.5391 0.305052 10
42.8568 22.5958 4.23871 0.304309 10
42.8565 22.5957 5.94872 0.303196 10
42.8563 22.5956 7.67343 0.301714 10
42.8561 22.5954 9.41732 0.299864 10
42.8559 22.5953 11.185 0.297649 10
42.8556 22.5952 12.9814 0.295071 10
8.68122 4.61589 -2.6345 0.00720332 4
10.1735 5.40934 -2.66011 0.0135162 4
11.5078 6.11882 -2.53344 0.148552 4
14.177 7.53802 -2.54308 0.0791316 4
25.2711 13.4369 -2.50403 0.128747 4
42.4762 22.585 -2.5212 0.394014 10
42.476 22.5849 -0.839712 0.394497 10
42.4758 22.5848 0.839707 0.394499 10
42.4756 22.5847 2.52116 0.307222 10
42.4754 22.5845 4.20876 0.306475 10
42.4751 22.5844 5.90668 0.305354 10
42.4749 22.5843 7.61921 0.303861 10
42.4747 22.5842 9.35077 0.301998 10
42.4745 22.5841 11.106 0.299767 10
42.4742 22.5839 12.8897 0.297171 10
8.66513 4.6462 -2.63452 0.0246111 4
10.1948 5.46638 -2.67064 0.0137913 4
11.4162 6.12132 -2.51796 0.0648413 4
14.1725 7.59924 -2.54703 0.0702055 4
25.2651 13.547 -2.50811 0.154684 4
42.1002 22.5739 -2.50354 0.396793 10
42.0999 22.5738 -0.83383 0.39728 10
42.0997 22.5737 0.833825 0.397282 10
42.0995 22.5736 2.5035 0.30939 10
42.0993 22.5734 4.17928 0.308637 10
42.0991 22.5733 5.86531 0.307508 10
42.0989 22.5732 7.56585 0.306004 10
42.0987 22.5731 9.28528 0.304128 10
42.0984 22.573 11.0282 0.301881 10
42.0982 22.5729 12.7994 0.299267 10
8.64893 4.67646 -2.63455 0.0192085 4
10.216 5.52376 -2.68124 0.0457892 4
11.3926 6.15997 -2.51749 0.0634123 4
14.1681 7.66064 -2.55102 0.0786508 4
18.754 10.1402 -2.61775 0.0176365 4
25.2591 13.6575 -2.51224 0.119647 4
41.1545 22.2522 -2.45191 0.794056 10
41.1519 22.2508 -0.816587 0.795074 10
41.7289 22.5627 0.828036 0.400059 10
41.1468 22.248 2.45145 0.619249 10
41.7285 22.5625 4.15026 0.310795 10
41.1416 22.2452 5.74269 0.615554 10
41.1389 22.2437 7.40724 0.612581 10
41.1363 22.2423 9.09009 0.608861 10
41.1336 22.2408 10.7957 0.604399 10
41.1308 22.2394 12.5288 0.599201 10
8.63263 4.70666 -2.63457 0.027612 4
10.2372 5.5815 -2.6919 0.0306224 4
11.3712 6.19978 -2.51752 0.0603075 4
14.1636 7.72222 -2.55505 0.102323 4
18.7188 10.2058 -2.6178 0.0164983 4
25.253 13.7684 -2.5164 0.123315 4
41.1491 22.4352 -2.45624 0.792656 10
41.1465 22.4338 -0.818029 0.793669 10
41.3632 22.5519 0.822336 0.402832 10
41.1414 22.431 2.45577 0.618158 10
41.3628 22.5517 4.12169 0.312949 10
41.1361 22.4281 5.75283 0.61447 10
41.1335 22.4267 7.42031 0.611501 10
41.1308 22.4253 9.10613 0.607788 10
41.1281 22.4238 10.8148 0.603334 10
41.1254 22.4223 12.5509 0.598146 10
8.61622 4.73681 -2.63459 0.0180077 4
10.2584 5.63959 -2.70263 0.0467246 4
11.3496 6.23951 -2.51755 0.0594199 4
14.159 7.78399 -2.55912 0.0714759 4
25.247 13.8796 -2.52061 0.141788 4
41.0029 22.5415 -2.45219 0.405102 10
41.1116 22.6013 -0.818898 0.792252 10
41.0025 22.5413 0.816724 0.4056 10
41.1064 22.5984 2.45838 0.393915 10
41.0021 22.5411 4.09356 0.315099 10
41.1012 22.5956 5.75893 0.391565 10
41.0016 22.5408 7.41067 0.199438 10
41.0959 22.5927 9.11579 0.387307 10
41.0932 22.5912 10.8262 0.384469 10
41.0904 22.5897 12.5643 0.381163 10
8.59971 4.7669 -2.63461 0.0582243 4
10.2622 5.68842 -2.70885 0.0860201 1
11.8303 6.55766 -2.62924 0.0545415 4
14.1545 7.84595 -2.56323 0.0841304 4
25.2408 13.9912 -2.52485 0.142642 4
40.7758 22.6024 -2.44331 0.407862 10
40.6466 22.5308 0.811197 0.408364 10
40.6462 22.5306 4.06586 0.317246 10
40.7746 22.6017 7.38384 0.200796 10
8.5831 4.79693 -2.63464 0.0492201 4
10.2424 5.72426 -2.70887 0.0860192 1
11.8075 6.599 -2.62927 0.0802593 4
14.1499 7.90809 -2.56738 0.0929538 4
25.2347 14.1032 -2.52915 0.136519 4
39.6156 22.1404 -2.37841 0.410617 10
39.6155 22.1403 -0.792156 0.411119 10
40.2956 22.5204 0.805756 0.411121 10
39.6151 22.1401 2.37838 0.320167 10
40.2952 22.5202 4.03859 0.319388 10
39.6147 22.1399 5.57217 0.31822 10
39.6145 22.1398 7.18772 0.316664 10
39.6143 22.1397 8.82122 0.314723 10
39.6141 22.1395 10.477 0.312398 10
39.6139 22.1394 12.1597 0.309692 10
8.56638 4.8269 -2.63466 0.0180072 4
10.2224 5.76004 -2.7089 0.0860183 1
11.7846 6.64026 -2.6293 0.0505494 4
14.1452 7.97043 -2.57157 0.0570734 4
18.5759 10.467 -2.618 0.0167815 4
25.2285 14.2155 -2.53348 0.145348 4
39.592 22.309 -2.38166 0.786951 10
39.5895 22.3075 -0.79319 0.787961 10
39.9492 22.5102 0.800396 0.413875 10
39.5845 22.3047 2.3812 0.613712 10
39.9488 22.51 4.01172 0.321527 10
39.5795 22.3019 5.57813 0.610051 10
39.5769 22.3004 7.19498 0.607105 10
39.5743 22.299 8.8296 0.603418 10
39.5717 22.2975 10.4863 0.598997 10
39.5691 22.296 12.1698 0.593846 10
10.2024 5.79575 -2.70893 0.0860174 1
11.7615 6.68143 -2.62934 0.11307 4
14.1406 8.03297 -2.5758 0.0973127 4
25.2222 14.3282 -2.53786 0.155279 4
39.5868 22.4884 -2.38604 0.785503 10
39.5842 22.487 -0.794652 0.786511 10
39.6074 22.5001 0.795116 0.416623 10
39.5792 22.4841 2.38559 0.612583 10
39.607 22.4999 3.98526 0.323662 10
39.5742 22.4812 5.58841 0.608929 10
39.5716 22.4798 7.20824 0.605988 10
39.569 22.4783 8.84587 0.602309 10
39.5664 22.4768 10.5057 0.597896 10
39.5637 22.4753 12.1922 0.592754 10
8.53262 4.88668 -2.63471 0.036614 4
10.1822 5.83139 -2.70896 0.0860165 1
11.7382 6.72253 -2.62937 0.0554257 4
14.1359 8.0957 -2.58008 0.101598 4
25.216 14.4413 -2.54229 0.117646 4
39.2705 22.4904 -2.3717 0.418851 10
39.2703 22.4903 -0.78992 0.419364 10
39.2701 22.4902 0.789915 0.419366 10
39.2699 22.4901 2.37166 0.326588 10
39.2697 22.49 3.95919 0.325793 10
39.2695 22.4899 5.55644 0.324601 10
39.2693 22.4897 7.16743 0.323014 10
39.2691 22.4896 8.79632 0.321034 10
39.2689 22.4895 10.4475 0.318662 10
39.2687 22.4894 12.1254 0.315902 10
8.51559 4.91648 -2.63473 0.00960358 4
10.1619 5.86695 -2.70899 0.0860156 1
11.7148 6.76355 -2.6294 0.015519 4
14.1312 8.15863 -2.5844 0.0975772 4
18.4664 10.6616 -2.61815 0.0236065 4
25.2096 14.5548 -2.54676 0.0846658 4
38.9375 22.4806 -2.35631 0.421585 10
38.9373 22.4805 -0.784796 0.422102 10
38.9371 22.4804 0.784792 0.422104 10
38.9369 22.4802 2.35628 0.32872 10
38.9368 22.4801 3.93351 0.32792 10
38.9366 22.48 5.5204 0.326721 10
38.9364 22.4799 7.12094 0.325123 10
38.9362 22.4798 8.73927 0.32313 10
38.936 22.4797 10.3797 0.320742 10
38.9358 22.4796 12.0468 0.317964 10
8.49845 4.94622 -2.63476 0.0228083 4
10.1414 5.90245 -2.70902 0.0860147 1
11.6913 6.80449 -2.62944 0.041679 4
14.1264 8.22176 -2.58876 0.0759027 4
25.2033 14.6686 -2.55127 0.15389 4
38.6088 22.4709 -2.34116 0.424315 10
38.6086 22.4708 -0.779748 0.424834 10
38.6085 22.4707 0.779743 0.424836 10
38.6083 22.4705 2.34112 0.330848 10
38.6081 22.4704 3.90821 0.330043 10
38.6079 22.4703 5.48489 0.328836 10
38.6077 22.4702 7.07514 0.327228 10
38.6075 22.4701 8.68305 0.325221 10
38.6073 22.47 10.3129 0.322819 10
38.6072 22.4699 11.9693 0.320023 10
8.48122 4.9759 -2.63478 0.115241 4
10.1209 5.93788 -2.70904 0.0860138 1
11.6676 6.84534 -2.62947 0.0226128 4
14.1216 8.28509 -2.59317 0.0992062 4
25.1969 14.7829 -2.55583 0.121752 4
38.2844 22.4613 -2.32622 0.427039 10
38.2842 22.4612 -0.774774 0.427562 10
38.284 22.4611 0.774769 0.427564 10
38.2838 22.461 2.32619 0.332972 10
38.2836 22.4609 3.88328 0.332162 10
38.2835 22.4608 5.4499 0.330947 10
38.2833 22.4607 7.03 0.329329 10
38.2831 22.4605 8.62766 0.327309 10
38.2829 22.4604 10.2471 0.324891 10
38.2827 22.4603 11.8929 0.322077 10
8.46387 5.00552 -2.63481 0.111038 4
10.1002 5.97324 -2.70907 0.0860128 1
11.6438 6.88612 -2.6295 0.0492155 4
14.1168 8.34863 -2.59761 0.0800147 4
25.1904 14.8976 -2.56044 0.119328 4
37.964 22.4518 -2.3115 0.429758 10
37.9638 22.4517 -0.769872 0.430284 10
37.9636 22.4516 0.769867 0.430286 10
37.9635 22.4515 2.31147 0.335092 10
37.9633 22.4514 3.85871 0.334277 10
37.9631 22.4513 5.41542 0.333054 10
37.9629 22.4512 6.98553 0.331426 10
37.9627 22.4511 8.57308 0.329393 10
37.9626 22.451 10.1823 0.32696 10
37.9624 22.4509 11.8177 0.324128 10
8.44643 5.03508 -2.63483 0.142248 4
10.0794 6.00852 -2.7091 0.0860119 1
11.6198 6.9268 -2.62954 0.0642897 4
14.1119 8.41237 -2.6021 0.0821035 4
25.1839 15.0126 -2.56509 0.119999 4
37.9028 22.5946 -2.31256 0.776617 10
37.9003 22.5931 -0.770179 0.777614 10
37.8979 22.5917 0.770129 0.777664 10
37.8955 22.5902 2.31212 0.605654 10
37.893 22.5888 3.85956 0.604216 10
37.8906 22.5873 5.41629 0.602042 10
37.8881 22.5858 6.98622 0.599135 10
37.8856 22.5843 8.57341 0.595498 10
37.8831 22.5828 10.1821 0.591135 10
37.8805 22.5813 11.8167 0.586052 10
8.42888 5.06458 -2.63486 0.115838 4
10.02 6.02059 -2.69876 0.164404 4
11.5746 6.95474 -2.62479 0.12266 4
14.107 8.47633 -2.60664 0.0863922 4
18.2793 10.9833 -2.61842 0.0216134 4
24.4507 14.6915 -2.49562 0.0286057 4
37.8976 22.7711 -2.31708 0.775103 10
37.8951 22.7697 -0.771684 0.776098 10
37.8927 22.7682 0.771634 0.776148 10
37.8903 22.7668 2.31664 0.604473 10
37.8878 22.7653 3.8671 0.603039 10
37.8854 22.7638 5.42687 0.600869 10
37.8829 22.7623 6.99987 0.597967 10
37.8804 22.7608 8.59015 0.594337 10
37.8778 22.7593 10.202 0.589983 10
37.8752 22.7577 11.8397 0.58491 10
8.41123 5.09402 -2.63488 0.121839 4
9.94555 6.02324 -2.68437 0.162855 4
11.4939 6.96098 -2.61198 0.166696 4
14.102 8.5405 -2.61122 0.0965914 4
24.4 14.7772 -2.49569 0.0292178 4
37.8923 22.9484 -2.32165 0.773579 10
37.8899 22.9469 -0.773204 0.774572 10
37.8875 22.9455 0.773153 0.774622 10
37.885 22.944 2.3212 0.603285 10
37.8826 22.9425 3.87472 0.601853 10
37.8801 22.941 5.43756 0.599688 10
37.8776 22.9395 7.01365 0.596792 10
37.8751 22.938 8.60706 0.593169 10
37.8726 22.9364 10.222 0.588823 10
37.87 22.9349 11.8631 0.58376 10
8.39348 5.1234 -2.63491 0.106233 4
9.87191 6.02584 -2.67015 0.18938 4
11.414 6.96714 -2.59933 0.142735 4
14.0969 8.60475 -2.6158 0.0913144 4
24.349 14.8627 -2.49576 0.0267652 4
37.8871 23.1264 -2.32626 0.772046 10
37.8847 23.1249 -0.774739 0.773037 10
37.8822 23.1234 0.774688 0.773087 10
37.8798 23.1219 2.32581 0.60209 10
37.8773 23.1204 3.88241 0.600661 10
37.8748 23.1189 5.44835 0.5985 10
37.8724 23.1174 7.02757 0.59561 10
37.8698 23.1158 8.62415 0.591994 10
37.8673 23.1143 10.2423 0.587657 10
37.8647 23.1127 11.8866 0.582604 10
8.37562 5.15272 -2.63493 0.03361 4
9.79904 6.02841 -2.65612 0.151076 4
11.3348 6.97323 -2.58682 0.129201 4
14.0918 8.66936 -2.62047 0.127336 4
24.3307 14.9684 -2.49923 0.115161 4
37.8818 23.3051 -2.33091 0.770503 10
37.8794 23.3035 -0.77629 0.771493 10
37.8769 23.302 0.776239 0.771543 10
34.8831 21.4602 2.1464 0.345631 10
34.883 21.4601 3.58315 0.34479 10
34.8828 21.4601 5.02869 0.343529 10
34.8827 21.46 6.48667 0.341849 10
37.8645 23.2944 8.64141 0.590812 10
34.8823 21.4597 9.45517 0.337242 10
34.8822 21.4597 10.9738 0.334321 10
8.35767 5.18197 -2.63496 0.0114033 4
9.72691 6.03094 -2.64226 0.151869 4
11.2564 6.97924 -2.57446 0.175081 4
14.0868 8.73418 -2.62519 0.144112 4
18.1257 11.2384 -2.61863 0.0150712 4
24.3257 15.0826 -2.50411 0.145932 4
37.8765 23.4845 -2.33562 0.768951 10
37.8741 23.4829 -0.777857 0.769939 10
37.8716 23.4814 0.777806 0.769989 10
34.8632 21.6161 2.1498 0.599686 10
34.8609 21.6147 3.58861 0.598262 10
34.8586 21.6132 5.03604 0.596107 10
34.8563 21.6118 6.49576 0.593229 10
37.8592 23.4737 8.65884 0.589622 10
34.8516 21.6089 9.46723 0.585308 10
34.8492 21.6074 10.9871 0.580276 10
8.34488 5.21446 -2.63665 0.0363538 4
9.65552 6.03343 -2.62857 0.170035 4
11.1786 6.98518 -2.56224 0.187883 4
14.0575 8.78409 -2.62542 0.081552 4
24.3207 15.1973 -2.50904 0.170056 4
37.8712 23.6646 -2.34037 0.76739 10
37.8688 23.663 -0.779439 0.768376 10
37.8663 23.6615 0.779388 0.768425 10
34.8583 21.7819 2.15417 0.598468 10
34.856 21.7804 3.59591 0.597048 10
34.8537 21.779 5.04629 0.594897 10
34.8514 21.7776 6.50897 0.592025 10
34.9211 21.8211 8.00424 0.343867 10
34.8467 21.7746 9.48648 0.584121 10
34.8443 21.7731 11.0094 0.579098 10
8.35374 5.26063 -2.64523 0.0312772 4
9.58484 6.0359 -2.61505 0.167172 4
11.1016 6.99104 -2.55016 0.177951 4
14.027 8.83325 -2.62547 0.0491488 4
24.3157 15.3124 -2.51402 0.173357 4
37.8659 23.8454 -2.34517 0.765819 10
37.8634 23.8439 -0.781038 0.766803 10
37.861 23.8423 0.780987 0.766853 10
34.7513 21.8841 2.15227 0.224648 10
34.7627 21.8912 3.59414 0.380358 10
34.7604 21.8898 5.04381 0.37899 10
34.7581 21.8883 6.50577 0.37716 10
34.6381 21.8128 7.95678 0.345919 10
34.7534 21.8854 9.48182 0.372125 10
34.6802 21.8393 10.9816 0.114077 10
8.3625 5.307 -2.65386 0.053987 4
9.51487 6.03832 -2.60169 0.146713 4
11.0253 6.99684 -2.53822 0.184829 4
13.4019 8.50508 -2.51401 0.0506042 4
24.3106 15.428 -2.51905 0.146057 4
37.8606 24.027 -2.35002 0.764239 10
37.8581 24.0255 -0.782653 0.765221 10
37.8556 24.0239 0.782601 0.765271 10
34.4707 21.8758 2.13961 0.225977 10
34.3585 21.8045 7.90997 0.347966 10
34.4698 21.8752 10.9391 0.218583 10
8.37116 5.35357 -2.66252 0.0500218 4
9.4456 6.04071 -2.5885 0.199135 4
10.9496 7.00256 -2.52642 0.177197 4
13.3723 8.55195 -2.51405 0.0422302 4
17.9686 11.4914 -2.61886 0.0287182 4
24.3055 15.544 -2.52412 0.138576 4
37.8552 24.2094 -2.35492 0.762649 10
37.8527 24.2078 -0.784284 0.76363 10
37.8502 24.2062 0.784232 0.76368 10
33.492 21.419 4.88134 0.353898 10
34.0821 21.7964 7.86381 0.350008 10
34.1927 21.8671 9.37026 0.221787 10
8.37971 5.40035 -2.67122 0.0517475 4
9.37701 6.04307 -2.57547 0.167207 4
10.8895 7.01783 -2.5182 0.0633945 4
13.3426 8.59872 -2.51409 0.0502385 4
24.3003 15.6605 -2.52925 0.136957 4
37.8498 24.3925 -2.35986 0.761051 10
37.8473 24.3909 -0.785931 0.762029 10
37.8448 24.3893 0.785879 0.762079 10
33.307 21.4649 2.07663 0.593517 10
33.3049 21.4635 3.46647 0.592109 10
33.3027 21.4621 4.86464 0.589979 10
33.3004 21.4607 6.27466 0.587131 10
33.8089 21.7883 7.81828 0.352047 10
33.2959 21.4577 9.14498 0.579292 10
33.2936 21.4563 10.6131 0.574312 10
8.38816 5.44734 -2.67996 0.0534612 4
9.30909 6.04539 -2.5626 0.15659 4
10.8651 7.0559 -2.51823 0.0647235 4
13.3127 8.64539 -2.51413 0.053514 4
17.8887 11.617 -2.61897 0.014785 4
24.2952 15.7775 -2.53443 0.185602 4
37.8444 24.5764 -2.36486 0.759443 10
37.8419 24.5748 -0.787595 0.760419 10
37.8394 24.5732 0.787543 0.760469 10
33.3023 21.6267 2.08103 0.592263 10
33.3001 21.6253 3.4738 0.590858 10
33.2979 21.6239 4.87493 0.588733 10
33.2956 21.6224 6.28794 0.585891 10
33.5388 21.7804 7.77336 0.354081 10
33.2911 21.6195 9.16433 0.578069 10
33.2888 21.618 10.6355 0.573099 10
8.39651 5.49452 -2.68874 0.0532866 4
9.24183 6.04768 -2.54988 0.111311 4
10.8406 7.09388 -2.51827 0.0669391 4
13.2827 8.69196 -2.51418 0.042228 4
24.29 15.8949 -2.53966 0.169754 4
37.8389 24.7611 -2.36991 0.757826 10
37.8364 24.7595 -0.789276 0.7588 10
37.834 24.7578 0.789223 0.75885 10
33.2724 21.7729 2.0839 0.362272 10
33.2723 21.7728 3.47882 0.361391 10
33.2722 21.7727 4.88227 0.360069 10
33.272 21.7726 6.2978 0.358308 10
33.2719 21.7725 7.72905 0.356111 10
33.2717 21.7724 9.17986 0.353479 10
33.2716 21.7723 10.6542 0.350418 10
8.40476 5.54192 -2.69755 0.0516163 4
9.17523 6.04995 -2.53731 0.164579 4
10.8159 7.13178 -2.5183 0.0589588 4
13.2525 8.73842 -2.51422 0.0455035 4
17.8079 11.7422 -2.61909 0.0133628 4
24.2847 16.0128 -2.54494 0.165826 4
37.8335 24.9466 -2.37501 0.756199 10
37.831 24.9449 -0.790973 0.757171 10
37.8285 24.9433 0.79092 0.757221 10
33.0085 21.7651 2.07212 0.364333 10
33.0084 21.765 3.45914 0.363446 10
33.0082 21.7649 4.85466 0.362117 10
33.0081 21.7648 6.26218 0.360346 10
33.0079 21.7647 7.68534 0.358136 10
33.0078 21.7646 9.12794 0.35549 10
33.0076 21.7645 10.594 0.352411 10
8.41289 5.58951 -2.70641 0.0462281 4
9.10925 6.05217 -2.52489 0.179601 4
10.7911 7.16959 -2.51834 0.0607312 4
13.2222 8.78478 -2.51426 0.0302138 4
24.2795 16.1312 -2.55027 0.160627 4
37.828 25.1328 -2.38015 0.754563 10
37.8255 25.1312 -0.792687 0.755534 10
37.823 25.1295 0.792635 0.755584 10
32.7475 21.7574 2.06049 0.366389 10
32.7474 21.7573 3.43973 0.365497 10
32.7472 21.7572 4.82741 0.36416 10
32.7471 21.7571 6.22703 0.362379 10
32.7469 21.757 7.64221 0.360157 10
32.7468 21.7569 9.07672 0.357496 10
32.7466 21.7568 10.5345 0.3544 10
8.4101 5.63007 -2.71182 0.0988625 1
9.07481 6.07506 -2.52121 0.0464596 4
10.7662 7.20731 -2.51837 0.0709259 4
13.1916 8.83103 -2.51431 0.0349455 4
24.2742 16.2501 -2.55566 0.157808 4
37.8225 25.3199 -2.38535 0.752919 10
37.82 25.3183 -0.794419 0.753887 10
37.8175 25.3166 0.794366 0.753937 10
32.4894 21.7498 2.04901 0.368441 10
32.4893 21.7497 3.42057 0.367544 10
32.4891 21.7496 4.80053 0.366199 10
32.489 21.7495 6.19236 0.364409 10
32.4889 21.7494 7.59966 0.362174 10
32.4887 21.7493 9.02618 0.359498 10
32.4886 21.7492 10.4759 0.356384 10
8.39048 5.65945 -2.71185 0.0988615 1
9.05366 6.10677 -2.52124 0.0553332 4
10.7411 7.24496 -2.51841 0.0549668 4
13.161 8.87718 -2.51435 0.0455012 4
17.6852 11.9288 -2.61926 0.0361055 4
24.2688 16.3695 -2.5611 0.10084 4
33.6931 22.7263 -2.12991 0.0478255 10
37.8144 25.5061 -0.796168 0.752231 10
37.8119 25.5045 0.796115 0.752281 10
32.2342 21.7422 2.03769 0.370488 10
32.2341 21.7422 3.40167 0.369586 10
32.2339 21.7421 4.774 0.368234 10
32.2338 21.742 6.15814 0.366433 10
32.2337 21.7419 7.55766 0.364186 10
32.2335 21.7418 8.9763 0.361496 10
32.2334 21.7417 10.418 0.358364 10
8.37077 5.68876 -2.71188 0.0988604 1
9.0324 6.13841 -2.52127 0.0610746 4
10.7159 7.28251 -2.51845 0.0385648 4
13.1301 8.92322 -2.5144 0.0484124 4
17.6438 11.9907 -2.61932 0.0193316 4
24.2635 16.4894 -2.56659 0.182955 4
33.6153 22.8449 -2.13003 0.047823 10
37.8089 25.6949 -0.797934 0.750566 10
37.8063 25.6931 0.797881 0.750616 10
31.9818 21.7348 2.02652 0.37253 10
31.9817 21.7347 3.38302 0.371624 10
31.9815 21.7346 4.74783 0.370264 10
31.9814 21.7345 6.12438 0.368454 10
31.9813 21.7344 7.51623 0.366194 10
31.9811 21.7343 8.92709 0.363488 10
31.981 21.7342 10.3609 0.36034 10
8.35094 5.71801 -2.7119 0.0988594 1
9.01103 6.16998 -2.5213 0.0636838 4
10.6906 7.31997 -2.51848 0.0390076 4
13.0991 8.96916 -2.51444 0.0447716 4
24.2581 16.6098 -2.57214 0.195086 4
33.5371 22.9633 -2.13014 0.0478204 10
37.7789 25.8678 -0.799204 0.480975 10
37.7788 25.8677 0.7992 0.480977 10
31.7974 21.7721 2.01964 0.583286 10
31.7953 21.7707 3.37133 0.581903 10
31.7931 21.7692 4.73112 0.57981 10
31.791 21.7677 6.10243 0.577012 10
31.7888 21.7662 7.48881 0.57351 10
31.7866 21.7647 8.89394 0.56931 10
31.7844 21.7632 10.3217 0.564416 10
8.33102 5.74719 -2.71193 0.0988583 1
9.38826 6.47652 -2.63316 0.065771 4
10.6651 7.35735 -2.51852 0.0682622 4
13.068 9.01499 -2.51449 0.038219 4
24.2526 16.7308 -2.57774 0.194841 4
33.5053 23.1137 -2.13323 0.746247 10
37.6212 25.9531 -0.797778 0.747207 10
37.6186 25.9514 0.797724 0.747257 10
31.7927 21.9323 2.02419 0.581975 10
31.7906 21.9308 3.37892 0.580595 10
31.7884 21.9293 4.74177 0.578507 10
31.7862 21.9279 6.11617 0.575715 10
31.7841 21.9263 7.50567 0.572221 10
31.7818 21.9248 8.91397 0.568031 10
31.7796 21.9233 10.345 0.563148 10
8.311 5.77629 -2.71196 0.0988573 1
9.36571 6.50934 -2.63319 0.074122 4
10.6395 7.39465 -2.51856 0.0638287 4
13.0367 9.06071 -2.51453 0.0549615 4
17.5185 12.1757 -2.6195 0.0250157 4
24.2472 16.8522 -2.5834 0.154409 4
33.5003 23.2833 -2.13807 0.744556 10
37.6155 26.1435 -0.799589 0.745515 10
37.613 26.1417 0.799535 0.745565 10
31.7879 22.0932 2.02878 0.580657 10
31.7858 22.0917 3.38659 0.57928 10
31.7836 22.0902 4.75254 0.577197 10
31.7815 22.0887 6.13006 0.574412 10
31.7793 22.0872 7.52271 0.570926 10
31.7771 22.0856 8.9342 0.566745 10
31.7748 22.0841 10.3684 0.561873 10
8.29087 5.80533 -2.71199 0.0988562 1
9.34305 6.54207 -2.63323 0.0584617 4
10.6138 7.43185 -2.51859 0.060725 4
13.0052 9.10633 -2.51458 0.0524127 4
17.4763 12.237 -2.61956 0.0156344 4
24.2417 16.9742 -2.58911 0.151407 4
33.4952 23.4536 -2.14296 0.742857 10
37.6099 26.3347 -0.801418 0.743813 10
37.6074 26.333 0.801364 0.743863 10
31.7831 22.2548 2.03343 0.579331 10
31.781 22.2533 3.39434 0.577958 10
31.7789 22.2518 4.7634 0.57588 10
31.7767 22.2503 6.14408 0.573101 10
31.7745 22.2487 7.53991 0.569623 10
31.7723 22.2472 8.95463 0.565452 10
31.77 22.2456 10.3921 0.560591 10
8.27065 5.8343 -2.71202 0.0988552 1
9.32027 6.57473 -2.63326 0.057939 4
10.5879 7.46896 -2.51863 0.0527458 4
12.9736 9.15184 -2.51462 0.0593272 4
17.4339 12.2982 -2.61962 0.0227405 4
24.2362 17.0967 -2.59487 0.187675 4
33.4902 23.6247 -2.1479 0.741148 10
37.7806 26.6513 -0.807034 0.742102 10
37.7781 26.6495 0.806979 0.742152 10
31.7784 22.4172 2.03811 0.577999 10
31.7762 22.4156 3.40216 0.576629 10
31.774 22.4141 4.77438 0.574556 10
31.7719 22.4126 6.15824 0.571783 10
31.7697 22.411 7.55729 0.568314 10
31.7674 22.4095 8.97526 0.564152 10
31.7652 22.4079 10.4161 0.559302 10
8.25032 5.8632 -2.71205 0.0988541 1
9.29738 6.6073 -2.63329 0.0276642 4
10.562 7.50599 -2.51867 0.0633826 4
12.9418 9.19724 -2.51467 0.0476793 4
17.3913 12.3593 -2.61968 0.0162022 4
24.2306 17.2198 -2.6007 0.12999 4
33.4851 23.7966 -2.15289 0.73943 10
37.7749 26.8452 -0.808909 0.740383 10
37.7724 26.8434 0.808853 0.740433 10
31.7735 22.5803 2.04285 0.57666 10
31.7714 22.5787 3.41006 0.575293 10
31.7692 22.5772 4.78547 0.573225 10
31.767 22.5757 6.17253 0.570459 10
31.7648 22.5741 7.57483 0.566997 10
31.7626 22.5725 8.9961 0.562845 10
31.7603 22.5709 10.4403 0.558007 10
8.22989 5.89202 -2.71208 0.098853 1
9.27438 6.6398 -2.63333 0.077772 4
10.5358 7.54292 -2.51871 0.0629384 4
12.9098 9.24252 -2.51471 0.0491342 4
24.225 17.3434 -2.60658 0.125512 4
32.3882 23.1877 -2.08756 0.495947 10
32.3881 23.1876 -0.695284 0.496554 10
32.3879 23.1875 0.695281 0.496556 10
31.7687 22.7441 2.04763 0.575314 10
31.7665 22.7426 3.41804 0.57395 10
31.7644 22.7411 4.79667 0.571887 10
31.7622 22.7395 6.18698 0.569127 10
31.76 22.7379 7.59256 0.565674 10
31.7577 22.7363 9.01715 0.561531 10
31.7555 22.7347 10.4647 0.556705 10
8.20937 5.92078 -2.71211 0.098852 1
9.25126 6.67222 -2.63336 0.0292294 4
10.5096 7.57977 -2.51874 0.0558459 4
12.8777 9.2877 -2.51476 0.0418543 4
24.2193 17.4675 -2.61252 0.176324 4
32.1404 23.1804 -2.07679 0.498519 10
32.1402 23.1803 -0.691697 0.499129 10
32.1401 23.1802 0.691693 0.499131 10
31.7638 22.9088 2.05245 0.57396 10
31.7617 22.9072 3.4261 0.5726 10
31.7595 22.9057 4.80798 0.570542 10
31.7573 22.9041 6.20156 0.567788 10
31.7551 22.9025 7.61045 0.564343 10
31.7528 22.9009 9.0384 0.560211 10
31.7506 22.8992 10.4894 0.555396 10
8.18874 5.94946 -2.71214 0.0988509 1
9.22803 6.70456 -2.63339 0.097082 4
10.4832 7.61652 -2.51878 0.0540722 4
12.8455 9.33277 -2.51481 0.0527718 4
