VERSION 0.7
FIELDS x y z intensity label
SIZE 4 4 4 4 4
TYPE F F F F F
COUNT 1 1 1 1 1
WIDTH 1247
HEIGHT 1
VIEWPOINT 53.2405 6.65736 2.72776 0.999889 1.3378e-06 0.000143113 -0.0149242
POINTS 1247
DATA ascii
-7.40789 -9.21356 -2.72939 0.0854145 1
-8.79975 -10.9447 -2.72979 0.0724401 1
-9.69002 -12.0519 -2.44931 0.668477 10
-9.69001 -12.0519 -1.89878 0.671765 10
-14.4596 -17.9842 -2.01891 0.576082 10
-21.1735 -26.3345 -1.7709 0.577481 10
-21.2613 -26.4437 -0.592267 0.676707 10
-21.5214 -26.7672 0.599513 0.578167 10
-12.5378 -15.5938 1.04863 0.0471596 10
-9.3933 -11.6829 1.31153 0.525709 10
-9.3933 -11.6829 1.84064 0.523784 10
-9.39329 -11.6829 2.37431 0.521221 10
-9.39329 -11.6829 2.91392 0.518022 10
-9.39329 -11.6829 3.4609 0.514193 10
-9.39328 -11.6829 4.01677 0.509737 10
-6.35427 -7.95986 -2.72909 0.0982852 1
-7.37566 -9.23933 -2.72938 0.0854148 1
-8.76146 -10.9753 -2.72978 0.0724403 1
-9.61926 -12.0498 -2.44204 0.670466 10
-9.61926 -12.0498 -1.89315 0.673764 10
-14.4559 -18.1086 -2.0272 0.573725 10
-21.5152 -26.9516 -1.80734 0.575118 10
-21.1684 -26.5171 -0.592254 0.57581 10
-21.5159 -26.9525 0.601976 0.575802 10
-12.4834 -15.6377 1.04865 0.0471589 10
-9.32471 -11.6809 1.30763 0.527274 10
-9.3247 -11.6809 1.83518 0.525343 10
-9.3247 -11.6808 2.36726 0.522772 10
-9.3247 -11.6808 2.90527 0.519564 10
-9.3247 -11.6808 3.45063 0.515723 10
-9.32469 -11.6808 4.00485 0.511254 10
-6.32643 -7.98197 -2.72908 0.0982855 1
-7.34334 -9.26499 -2.72937 0.0854151 1
-8.72306 -11.0058 -2.72977 0.0724406 1
-9.54892 -12.0477 -2.43485 0.672448 10
-9.54891 -12.0477 -1.88757 0.675755 10
-14.4522 -18.2341 -2.03559 0.57136 10
-21.5096 -27.1384 -1.81482 0.572748 10
-21.51 -27.1388 -0.604458 0.573438 10
-21.5103 -27.1392 0.604467 0.573429 10
-12.4289 -15.6814 1.04866 0.0471582 10
-9.25652 -11.6788 1.30378 0.528832 10
-9.25652 -11.6788 1.82977 0.526896 10
-9.25651 -11.6788 2.36029 0.524317 10
-9.25651 -11.6788 2.89671 0.5211 10
-9.25651 -11.6788 3.44046 0.517247 10
-9.2565 -11.6788 3.99305 0.512765 10
-6.29851 -8.00398 -2.72907 0.0982858 1
-7.31093 -9.29053 -2.72936 0.0854154 1
-8.68455 -11.0361 -2.72976 0.0724409 1
-9.47899 -12.0456 -2.42772 0.674421 10
-9.47899 -12.0456 -1.88205 0.677738 10
-14.4484 -18.3606 -2.04407 0.568989 10
-21.504 -27.3267 -1.82238 0.570371 10
-21.5043 -27.3271 -0.606977 0.571058 10
-21.5047 -27.3276 0.606986 0.571049 10
-12.3743 -15.725 1.04868 0.0471576 10
-9.18874 -11.6768 1.29997 0.530384 10
-9.18873 -11.6768 1.82442 0.528442 10
-9.18873 -11.6768 2.35338 0.525856 10
-9.18872 -11.6768 2.88823 0.522629 10
-9.18872 -11.6768 3.43039 0.518765 10
-9.18872 -11.6768 3.98136 0.51427 10
-6.27052 -8.02589 -2.72906 0.0982861 1
-7.27843 -9.31596 -2.72935 0.0854157 1
-8.64594 -11.0663 -2.72975 0.0724412 1
-9.40947 -12.0436 -2.42067 0.676386 10
-9.40947 -12.0436 -1.87658 0.679713 10
-14.4446 -18.4882 -2.05265 0.566612 10
-14.5234 -18.5891 -1.2363 0.451719 10
-14.5234 -18.5891 -0.411764 0.452271 10
-14.5234 -18.5891 0.411763 0.452271 10
-12.3195 -15.7683 1.04869 0.0471568 10
-9.12135 -11.6748 1.29619 0.531929 10
-9.12134 -11.6748 1.81912 0.529981 10
-9.12134 -11.6748 2.34655 0.527388 10
-9.12134 -11.6748 2.87984 0.524151 10
-9.12134 -11.6748 3.42043 0.520276 10
-9.12133 -11.6748 3.9698 0.515768 10
-6.24244 -8.04771 -2.72906 0.0982864 1
-7.24584 -9.34128 -2.72934 0.085416 1
-8.60722 -11.0964 -2.72974 0.0724415 1
-9.34035 -12.0415 -2.41369 0.678343 10
-9.34035 -12.0415 -1.87117 0.681679 10
-14.4407 -18.6169 -2.06132 0.564227 10
-14.441 -18.6172 -1.2348 0.373591 10
-14.4412 -18.6175 -0.411273 0.374041 10
-14.4414 -18.6178 0.411279 0.374035 10
-12.2646 -15.8114 1.04871 0.0471561 10
-9.05434 -11.6728 1.29245 0.533468 10
-9.05434 -11.6728 1.81387 0.531515 10
-9.05433 -11.6728 2.33978 0.528913 10
-9.05433 -11.6728 2.87153 0.525668 10
-9.05433 -11.6728 3.41056 0.521782 10
-9.05432 -11.6728 3.95835 0.51726 10
-6.2143 -8.06943 -2.72905 0.0982867 1
-7.21317 -9.36649 -2.72934 0.0854163 1
-8.56841 -11.1263 -2.72973 0.0724418 1
-9.27163 -12.0395 -2.40677 0.680291 10
-9.27163 -12.0395 -1.86581 0.683637 10
-14.4369 -18.7466 -2.0701 0.561835 10
-14.5236 -18.8592 -1.24749 0.454328 10
-14.5236 -18.8592 -0.415491 0.454882 10
-14.5236 -18.8592 0.41549 0.454882 10
-12.2095 -15.8544 1.04872 0.0471554 10
-8.98772 -11.6708 1.28875 0.535001 10
-8.98772 -11.6708 1.80867 0.533041 10
-8.98772 -11.6708 2.33308 0.530433 10
-8.98772 -11.6708 2.86331 0.527178 10
-8.98771 -11.6708 3.40079 0.52328 10
-8.98771 -11.6708 3.94701 0.518746 10
-6.18607 -8.09104 -2.72904 0.0982869 1
-7.1804 -9.39158 -2.72933 0.0854166 1
-8.52948 -11.1561 -2.72972 0.0724421 1
-9.2033 -12.0374 -2.39993 0.682231 10
-9.2033 -12.0374 -1.8605 0.685587 10
-14.4329 -18.8775 -2.07897 0.559437 10
-14.4332 -18.8778 -1.24537 0.37042 10
-14.4334 -18.8781 -0.414794 0.370865 10
-14.4336 -18.8784 0.4148 0.37086 10
-12.1543 -15.8971 1.04874 0.0471547 10
-8.92149 -11.6688 1.28508 0.536526 10
-8.92148 -11.6688 1.80353 0.534562 10
-8.92148 -11.6688 2.32644 0.531945 10
-8.92148 -11.6688 2.85517 0.528681 10
-8.92148 -11.6688 3.39112 0.524773 10
-8.92147 -11.6688 3.93579 0.520225 10
-6.15777 -8.11256 -2.72903 0.0982872 1
-7.14755 -9.41655 -2.72932 0.0854168 1
-8.49045 -11.1858 -2.7297 0.0724424 1
-9.13536 -12.0354 -2.39315 0.684163 10
-9.13535 -12.0354 -1.85525 0.687528 10
-14.429 -19.0095 -2.08795 0.557031 10
-14.5199 -19.1292 -1.25861 0.456914 10
-14.5199 -19.1292 -0.419196 0.457471 10
-14.5199 -19.1292 0.419196 0.457471 10
-12.0989 -15.9397 1.04876 0.047154 10
-8.85563 -11.6669 1.28145 0.538046 10
-8.85562 -11.6668 1.79844 0.536075 10
-8.85562 -11.6668 2.31987 0.533452 10
-8.85561 -11.6668 2.8471 0.530178 10
-8.85561 -11.6668 3.38155 0.526259 10
-8.85561 -11.6668 3.92467 0.521698 10
-6.1294 -8.13399 -2.72902 0.0982875 1
-7.11462 -9.44141 -2.72931 0.0854171 1
-8.45132 -11.2153 -2.72969 0.0724427 1
-9.0678 -12.0334 -2.38644 0.686087 10
-9.06779 -12.0334 -1.85004 0.689461 10
-14.425 -19.1427 -2.09703 0.554619 10
-14.4253 -19.143 -1.25619 0.36723 10
-14.4255 -19.1433 -0.418397 0.367672 10
-14.4257 -19.1436 0.418404 0.367666 10
-12.0434 -15.9821 1.04877 0.0471533 10
-8.79013 -11.6649 1.27786 0.539559 10
-8.79013 -11.6649 1.79339 0.537583 10
-8.79013 -11.6649 2.31337 0.534952 10
-8.79012 -11.6649 2.83912 0.531669 10
-8.79012 -11.6649 3.37206 0.527739 10
-8.79012 -11.6649 3.91367 0.523165 10
-6.10095 -8.15531 -2.72902 0.0982878 1
-7.08159 -9.46616 -2.7293 0.0854174 1
-8.41209 -11.2447 -2.72968 0.072443 1
-9.00061 -12.0314 -2.3798 0.688002 10
-9.00061 -12.0314 -1.84489 0.691386 10
-14.421 -19.277 -2.10622 0.5522 10
-14.5124 -19.3991 -1.26967 0.459477 10
-14.5124 -19.3991 -0.42288 0.460038 10
-14.5124 -19.3991 0.422879 0.460038 10
-11.9877 -16.0243 1.04879 0.0471526 10
-8.725 -11.663 1.2743 0.541065 10
-8.725 -11.6629 1.7884 0.539083 10
-8.725 -11.6629 2.30693 0.536445 10
-8.72499 -11.6629 2.83122 0.533153 10
-8.72499 -11.6629 3.36268 0.529212 10
-8.72499 -11.6629 3.90277 0.524625 10
-6.07243 -8.17653 -2.72901 0.0982881 1
-7.04848 -9.49079 -2.72929 0.0854177 1
-8.37275 -11.2739 -2.72967 0.0724433 1
-8.9338 -12.0294 -2.37322 0.689909 10
-8.93379 -12.0294 -1.8398 0.693302 10
-14.417 -19.4125 -2.11551 0.549775 10
-14.4172 -19.4128 -1.26726 0.364022 10
-14.4174 -19.4131 -0.422084 0.36446 10
-14.4177 -19.4134 0.422091 0.364454 10
-11.9319 -16.0663 1.0488 0.0471519 10
-8.66024 -11.661 1.27078 0.542564 10
-8.66023 -11.661 1.78346 0.540577 10
-8.66023 -11.661 2.30055 0.537932 10
-8.66023 -11.661 2.82339 0.534631 10
-8.66023 -11.661 3.35338 0.530678 10
-8.66022 -11.661 3.89199 0.52608 10
-6.04383 -8.19765 -2.729 0.0982884 1
-7.01528 -9.5153 -2.72928 0.085418 1
-8.33331 -11.303 -2.72966 0.0724436 1
-8.86735 -12.0274 -2.36671 0.691807 10
-8.86735 -12.0274 -1.83475 0.69521 10
-14.4129 -19.5492 -2.12491 0.547342 10
-14.5012 -19.6689 -1.28067 0.462019 10
-14.5012 -19.6689 -0.426544 0.462582 10
-14.5012 -19.6689 0.426543 0.462582 10
-11.8759 -16.1081 1.04882 0.0471512 10
-8.59583 -11.6591 1.2673 0.544057 10
-8.59582 -11.6591 1.77857 0.542065 10
-8.59582 -11.6591 2.29424 0.539412 10
-8.59582 -11.6591 2.81565 0.536102 10
-8.59581 -11.6591 3.34418 0.532139 10
-8.59581 -11.6591 3.88131 0.527527 10
-6.01516 -8.21867 -2.72899 0.0982887 1
-6.982 -9.53969 -2.72927 0.0854183 1
-8.29377 -11.332 -2.72965 0.0724439 1
-8.80127 -12.0254 -2.36026 0.693697 10
-8.80127 -12.0254 -1.82975 0.697109 10
-14.4088 -19.6871 -2.13442 0.544903 10
-14.409 -19.6874 -1.27859 0.360796 10
-14.4092 -19.6877 -0.425858 0.361231 10
-14.4095 -19.688 0.425864 0.361225 10
-11.8198 -16.1497 1.04884 0.0471504 10
-8.53177 -11.6572 1.26384 0.545543 10
-8.53177 -11.6572 1.77372 0.543546 10
-8.53177 -11.6572 2.28799 0.540885 10
-8.53176 -11.6572 2.80798 0.537566 10
-8.53176 -11.6572 3.33507 0.533592 10
-8.53176 -11.6572 3.87073 0.528968 10
-5.98642 -8.2396 -2.72898 0.098289 1
-6.94864 -9.56398 -2.72926 0.0854186 1
-8.25413 -11.3608 -2.72964 0.0724442 1
-8.73555 -12.0234 -2.35388 0.695579 10
-8.73555 -12.0234 -1.8248 0.699 10
-14.4046 -19.8262 -2.14405 0.542458 10
-14.4862 -19.9386 -1.29161 0.464537 10
-14.4862 -19.9386 -0.430188 0.465104 10
-14.4862 -19.9386 0.430188 0.465104 10
-11.7635 -16.1911 1.04885 0.0471497 10
-8.46806 -11.6553 1.26042 0.547023 10
-8.46806 -11.6553 1.76892 0.54502 10
-8.46805 -11.6553 2.2818 0.542353 10
-8.46805 -11.6553 2.80038 0.539024 10
-8.46805 -11.6553 3.32605 0.53504 10
-8.46805 -11.6553 3.86026 0.530403 10
-5.9576 -8.26042 -2.72897 0.0982893 1
-6.91518 -9.58814 -2.72925 0.0854189 1
-8.21439 -11.3895 -2.72963 0.0724445 1
-8.67018 -12.0215 -2.34756 0.697452 10
-8.67018 -12.0215 -1.8199 0.700882 10
-14.4004 -19.9666 -2.15378 0.540005 10
-14.4006 -19.967 -1.29019 0.357553 10
-14.4009 -19.9673 -0.42972 0.357984 10
-14.4011 -19.9676 0.429727 0.357978 10
-11.7071 -16.2323 1.04887 0.047149 10
-8.40469 -11.6534 1.25704 0.548496 10
-8.40469 -11.6534 1.76417 0.546487 10
-8.40469 -11.6534 2.27567 0.543813 10
-8.40468 -11.6534 2.79286 0.540476 10
-8.40468 -11.6534 3.31712 0.53648 10
-8.40468 -11.6534 3.8499 0.531831 10
-5.92872 -8.28114 -2.72897 0.0982896 1
-6.88165 -9.61218 -2.72924 0.0854192 1
-8.17455 -11.4181 -2.72961 0.0724448 1
-8.60516 -12.0196 -2.3413 0.699316 10
-8.60516 -12.0196 -1.81505 0.702756 10
-14.3962 -20.1084 -2.16363 0.537547 10
-14.4676 -20.2082 -1.3025 0.467033 10
-14.4676 -20.2082 -0.433814 0.467603 10
-14.4676 -20.2082 0.433814 0.467604 10
-11.6505 -16.2733 1.04888 0.0471483 10
-8.34166 -11.6515 1.25369 0.549963 10
-8.34166 -11.6515 1.75947 0.547948 10
-8.34166 -11.6515 2.2696 0.545267 10
-8.34165 -11.6515 2.78541 0.541921 10
-8.34165 -11.6515 3.30827 0.537915 10
-8.34165 -11.6515 3.83963 0.533253 10
-5.89975 -8.30176 -2.72896 0.0982899 1
-6.84803 -9.63611 -2.72923 0.0854195 1
-8.13461 -11.4465 -2.7296 0.0724451 1
-8.54048 -12.0176 -2.3351 0.701172 10
-8.54048 -12.0176 -1.81024 0.704621 10
-14.3919 -20.2514 -2.1736 0.535081 10
-14.3921 -20.2517 -1.30206 0.354293 10
-14.3924 -20.252 -0.433675 0.354719 10
-14.3926 -20.2524 0.433682 0.354713 10
-11.5938 -16.3141 1.0489 0.0471475 10
-8.27897 -11.6496 1.25037 0.551422 10
-8.27896 -11.6496 1.75481 0.549403 10
-8.27896 -11.6496 2.2636 0.546714 10
-8.27896 -11.6496 2.77804 0.543359 10
-8.27896 -11.6496 3.29952 0.539342 10
-8.27895 -11.6496 3.82947 0.534668 10
-5.87072 -8.32228 -2.72895 0.0982902 1
-6.81433 -9.65993 -2.72922 0.0854198 1
-8.09457 -11.4748 -2.72959 0.0724454 1
-8.47615 -12.0157 -2.32896 0.70302 10
-8.47614 -12.0157 -1.80548 0.706478 10
-14.3876 -20.3957 -2.18369 0.532609 10
-21.4304 -30.3795 -1.9484 0.710808 10
-21.4304 -30.3795 -0.648939 0.711675 10
-21.4142 -30.3566 0.648449 0.534535 10
-11.537 -16.3547 1.04892 0.0471468 10
-8.2166 -11.6478 1.24708 0.552875 10
-8.2166 -11.6478 1.7502 0.55085 10
-8.21659 -11.6478 2.25765 0.548155 10
-8.21659 -11.6478 2.77074 0.544791 10
-8.21659 -11.6478 3.29084 0.540763 10
-8.21659 -11.6478 3.8194 0.536077 10
-5.84162 -8.34269 -2.72894 0.0982905 1
-6.78054 -9.68362 -2.72921 0.0854201 1
-8.05443 -11.5029 -2.72958 0.0724457 1
-8.41215 -12.0138 -2.32289 0.704859 10
-8.41215 -12.0138 -1.80077 0.708326 10
-14.3832 -20.5414 -2.1939 0.530131 10
-21.2908 -30.4063 -1.94534 0.712667 10
-21.2907 -30.4063 -0.64792 0.713537 10
-21.2907 -30.4063 0.647919 0.713537 10
-11.48 -16.3952 1.04893 0.0471461 10
-8.15456 -11.6459 1.24383 0.554321 10
-8.15456 -11.6459 1.74563 0.552291 10
-8.15456 -11.6459 2.25176 0.549588 10
-8.15455 -11.6459 2.76351 0.546216 10
-8.15455 -11.6459 3.28226 0.542178 10
-8.15455 -11.6459 3.80944 0.537479 10
-5.81244 -8.36301 -2.72893 0.0982908 1
-6.74668 -9.7072 -2.7292 0.0854204 1
-8.01419 -11.5309 -2.72957 0.072446 1
-8.34848 -12.0119 -2.31687 0.706689 10
-8.34848 -12.0119 -1.79611 0.710165 10
-14.3788 -20.6884 -2.20423 0.527646 10
-21.1296 -30.4015 -1.9403 0.714518 10
-21.1296 -30.4015 -0.646242 0.71539 10
-21.1296 -30.4015 0.646241 0.71539 10
-11.4229 -16.4354 1.04895 0.0471454 10
-8.09284 -11.6441 1.24061 0.555761 10
-8.09284 -11.6441 1.74111 0.553725 10
-8.09284 -11.6441 2.24592 0.551015 10
-8.09284 -11.6441 2.75635 0.547634 10
-8.09283 -11.6441 3.27376 0.543586 10
-8.09283 -11.6441 3.79957 0.538875 10
-5.7832 -8.38322 -2.72892 0.0982911 1
-6.71273 -9.73065 -2.72919 0.0854207 1
-7.97386 -11.5588 -2.72956 0.0724463 1
-8.28514 -12.01 -2.31091 0.708511 10
-8.28514 -12.01 -1.79149 0.711996 10
-14.3744 -20.8369 -2.21469 0.525155 10
-21.0487 -30.5118 -1.94264 0.526429 10
-21.0491 -30.5124 -0.647032 0.527063 10
-21.0494 -30.5129 0.647042 0.527054 10
-11.3656 -16.4754 1.04896 0.0471446 10
-8.03145 -11.6422 1.23742 0.557193 10
-8.03144 -11.6422 1.73663 0.555153 10
-8.03144 -11.6422 2.24015 0.552436 10
-8.03144 -11.6422 2.74927 0.549046 10
-8.03144 -11.6422 3.26534 0.544987 10
-8.03143 -11.6422 3.7898 0.540264 10
-5.75388 -8.40333 -2.72892 0.0982914 1
-6.6787 -9.75399 -2.72918 0.085421 1
-7.93343 -11.5865 -2.72955 0.0724466 1
-8.22213 -12.0081 -2.30502 0.710324 10
-8.22213 -12.0081 -1.78692 0.713818 10
-14.3699 -20.9867 -2.22527 0.522657 10
-21.3873 -31.2353 -1.98394 0.523926 10
-21.3876 -31.2358 -0.660786 0.524556 10
-21.388 -31.2363 0.660796 0.524547 10
-11.3082 -16.5153 1.04898 0.0471439 10
-7.97036 -11.6404 1.23426 0.558619 10
-7.97036 -11.6404 1.7322 0.556573 10
-7.97036 -11.6404 2.23443 0.55385 10
-7.97036 -11.6404 2.74225 0.550451 10
-7.97035 -11.6404 3.25701 0.546382 10
-7.97035 -11.6404 3.78013 0.541647 10
-5.7245 -8.42334 -2.72891 0.0982917 1
-6.64459 -9.77721 -2.72917 0.0854213 1
-7.89291 -11.6141 -2.72953 0.0724469 1
-8.15944 -12.0062 -2.29918 0.712128 10
-8.15944 -12.0062 -1.78239 0.715631 10
-14.3654 -21.138 -2.23598 0.520153 10
-21.3805 -31.4605 -1.99349 0.521416 10
-21.3809 -31.461 -0.663967 0.522043 10
-21.3813 -31.4615 0.663978 0.522034 10
-11.2507 -16.5549 1.049 0.0471432 10
-7.90959 -11.6386 1.23113 0.560038 10
-7.90959 -11.6386 1.72781 0.557987 10
-7.90959 -11.6386 2.22877 0.555256 10
-7.90958 -11.6386 2.7353 0.551849 10
-7.90958 -11.6386 3.24875 0.54777 10
-7.90958 -11.6386 3.77055 0.543023 10
-5.69504 -8.44324 -2.7289 0.098292 1
-6.61039 -9.80031 -2.72916 0.0854216 1
-7.85228 -11.6415 -2.72952 0.0724472 1
-8.09706 -12.0044 -2.29339 0.713924 10
-8.09706 -12.0044 -1.77791 0.717436 10
-14.3608 -21.2908 -2.24683 0.517643 10
-11.193 -16.5943 1.04901 0.0471424 10
-7.84912 -11.6368 1.22804 0.56145 10
-7.84912 -11.6368 1.72347 0.559394 10
-7.84912 -11.6368 2.22316 0.556657 10
-7.84912 -11.6368 2.72842 0.553241 10
-7.84911 -11.6368 3.24058 0.549151 10
-7.84911 -11.6368 3.76107 0.544392 10
-5.66552 -8.46305 -2.72889 0.0982923 1
-6.57612 -9.82329 -2.72915 0.0854219 1
-7.81157 -11.6688 -2.72951 0.0724475 1
-8.035 -12.0025 -2.28767 0.715711 10
-8.03499 -12.0025 -1.77347 0.719231 10
-14.3562 -21.4451 -2.25781 0.515126 10
-14.4316 -21.5577 -1.35958 0.72364 10
-14.4316 -21.5577 -0.452825 0.724523 10
-14.4316 -21.5577 0.452825 0.724523 10
-11.1352 -16.6336 1.04903 0.0471417 10
-7.78896 -11.635 1.22497 0.562856 10
-7.78895 -11.635 1.71916 0.560795 10
-7.78895 -11.635 2.21761 0.55805 10
-7.78895 -11.635 2.72161 0.554626 10
-7.78895 -11.635 3.23249 0.550525 10
-7.78894 -11.635 3.75168 0.545755 10
-5.63592 -8.48274 -2.72888 0.0982926 1
-6.54177 -9.84615 -2.72914 0.0854222 1
-7.77075 -11.6959 -2.7295 0.0724478 1
-7.97324 -12.0007 -2.282 0.717489 10
-7.97324 -12.0007 -1.76907 0.721018 10
-7.97324 -12.0007 -1.26053 0.478002 10
-7.97323 -12.0007 -0.755088 0.47917 10
-7.97323 -12.0007 -0.251492 0.479755 10
-7.97323 -12.0007 0.251491 0.479755 10
-7.97323 -12.0007 0.755087 0.479171 10
-7.72909 -11.6332 1.22193 0.564254 10
-7.72909 -11.6332 1.7149 0.562188 10
-7.72909 -11.6332 2.21212 0.559437 10
-7.72908 -11.6332 2.71486 0.556004 10
-7.72908 -11.6332 3.22448 0.551893 10
-7.72908 -11.6332 3.74238 0.547111 10
-5.60626 -8.50234 -2.72887 0.0982929 1
-6.50733 -9.86889 -2.72913 0.0854226 1
-7.72985 -11.7229 -2.72949 0.0724481 1
-7.91179 -11.9989 -2.27638 0.719259 10
-7.91178 -11.9988 -1.76472 0.722797 10
-7.91178 -11.9988 -1.25743 0.479181 10
-7.91178 -11.9988 -0.753231 0.480352 10
-7.91178 -11.9988 -0.250873 0.480938 10
-7.91178 -11.9988 0.250872 0.480938 10
-7.91177 -11.9988 0.75323 0.480352 10
-7.66952 -11.6314 1.21893 0.565646 10
-7.66952 -11.6314 1.71068 0.563575 10
-7.66952 -11.6314 2.20667 0.560816 10
-7.66951 -11.6314 2.70818 0.557375 10
-7.66951 -11.6314 3.21654 0.553254 10
-7.66951 -11.6314 3.73317 0.54846 10
-5.57653 -8.52183 -2.72887 0.0982932 1
-6.47282 -9.8915 -2.72912 0.0854229 1
-7.68885 -11.7498 -2.72948 0.0724485 1
-7.85064 -11.997 -2.27082 0.72102 10
-7.85063 -11.997 -1.76041 0.724566 10
-7.88408 -12.0481 -1.2597 0.335242 10
-7.88422 -12.0484 -0.754606 0.336056 10
-7.88436 -12.0486 -0.251335 0.33646 10
-7.8845 -12.0488 0.25134 0.336454 10
-7.88463 -12.049 0.754646 0.336038 10
-7.61024 -11.6297 1.21595 0.567031 10
-7.61024 -11.6297 1.70651 0.564954 10
-7.61024 -11.6297 2.20129 0.562189 10
-7.61023 -11.6297 2.70157 0.55874 10
-7.61023 -11.6297 3.20869 0.554609 10
-7.61023 -11.6297 3.72405 0.549803 10
-5.54673 -8.54122 -2.72886 0.0982935 1
-6.43823 -9.914 -2.72911 0.0854232 1
-7.64775 -11.7765 -2.72946 0.0724488 1
-7.78978 -11.9952 -2.26532 0.722772 10
-7.78978 -11.9952 -1.75614 0.726327 10
-7.88145 -12.1364 -1.26604 0.333563 10
-7.88159 -12.1366 -0.758404 0.334373 10
-7.88172 -12.1368 -0.2526 0.334775 10
-7.88186 -12.137 0.252605 0.334769 10
-7.882 -12.1372 0.758444 0.334355 10
-7.55125 -11.6279 1.213 0.568409 10
-7.55125 -11.6279 1.70237 0.566327 10
-7.55125 -11.6279 2.19595 0.563555 10
-7.55125 -11.6279 2.69502 0.560097 10
-7.55124 -11.6279 3.20091 0.555957 10
-7.55124 -11.6279 3.71503 0.551139 10
-5.51687 -8.5605 -2.72885 0.0982938 1
-6.40356 -9.93638 -2.7291 0.0854235 1
-7.60656 -11.8031 -2.72945 0.0724491 1
-7.72922 -11.9934 -2.25987 0.724515 10
-7.72922 -11.9934 -1.75192 0.728079 10
-14.1604 -21.9726 -2.28698 0.502449 10
-14.1606 -21.973 -1.36998 0.503668 10
-14.1609 -21.9734 -0.456296 0.504274 10
-14.1611 -21.9738 0.456304 0.504265 10
-10.8441 -16.8267 1.04911 0.0471379 10
-7.49254 -11.6262 1.21008 0.56978 10
-7.49254 -11.6262 1.69827 0.567693 10
-7.49254 -11.6261 2.19067 0.564915 10
-7.49254 -11.6261 2.68853 0.561448 10
-7.49253 -11.6261 3.19321 0.557298 10
-7.49253 -11.6261 3.70609 0.552468 10
-5.48693 -8.57968 -2.72884 0.0982941 1
-6.36882 -9.95864 -2.72909 0.0854238 1
-7.56529 -11.8295 -2.72944 0.0724494 1
-7.66895 -11.9916 -2.25447 0.726249 10
-7.66895 -11.9916 -1.74773 0.729822 10
-7.66895 -11.9916 -1.24533 0.483838 10
-7.66895 -11.9916 -0.74598 0.485021 10
-7.66894 -11.9916 -0.248458 0.485612 10
-7.66894 -11.9916 0.248458 0.485613 10
-7.66894 -11.9916 0.74598 0.485021 10
-7.43412 -11.6244 1.20719 0.571144 10
-7.43412 -11.6244 1.69422 0.569052 10
-7.43412 -11.6244 2.18543 0.566267 10
-7.43412 -11.6244 2.68212 0.562792 10
-7.43411 -11.6244 3.18558 0.558632 10
-7.43411 -11.6244 3.69724 0.55379 10
-5.45693 -8.59875 -2.72883 0.0982944 1
-6.33399 -9.98077 -2.72908 0.0854241 1
-7.52392 -11.8558 -2.72943 0.0724497 1
-7.60897 -11.9898 -2.24913 0.727975 10
-7.60896 -11.9898 -1.74359 0.731556 10
-7.61541 -12 -1.24343 0.328503 10
-7.61554 -12.0002 -0.744856 0.3293 10
-7.61568 -12.0004 -0.248088 0.329696 10
-7.61581 -12.0006 0.248092 0.32969 10
-7.61595 -12.0008 0.744895 0.329282 10
-7.37597 -11.6227 1.20433 0.572501 10
-7.37597 -11.6227 1.6902 0.570404 10
-7.37597 -11.6227 2.18025 0.567612 10
-7.37597 -11.6227 2.67576 0.564129 10
-7.37597 -11.6227 3.17803 0.559959 10
-7.37596 -11.6227 3.68847 0.555106 10
-5.42687 -8.61772 -2.72882 0.0982947 1
-6.29909 -10.0028 -2.72908 0.0854244 1
-7.48245 -11.8819 -2.72942 0.07245 1
-7.54927 -11.988 -2.24383 0.729692 10
-7.54926 -11.988 -1.73949 0.733281 10
-7.61275 -12.0888 -1.24988 0.326808 10
-7.61289 -12.0891 -0.748719 0.327601 10
-7.61302 -12.0893 -0.249375 0.327994 10
-7.61316 -12.0895 0.249379 0.327989 10
-7.6133 -12.0897 0.748759 0.327583 10
-7.3181 -11.6209 1.2015 0.573851 10
-7.3181 -11.6209 1.68623 0.571749 10
-7.3181 -11.6209 2.17513 0.568951 10
-7.3181 -11.6209 2.66946 0.56546 10
-7.31809 -11.6209 3.17056 0.561279 10
-7.31809 -11.6209 3.6798 0.556415 10
-5.39674 -8.63658 -2.72881 0.0982951 1
-6.26411 -10.0247 -2.72906 0.0854247 1
-7.4409 -11.9079 -2.7294 0.0724503 1
-7.48984 -11.9863 -2.2386 0.7314 10
-7.48984 -11.9863 -1.73543 0.734997 10
-14.3126 -22.905 -2.36298 0.492197 10
-14.4271 -23.0882 -1.42681 0.48846 10
-14.4271 -23.0882 -0.475217 0.489056 10
-14.4271 -23.0882 0.475216 0.489056 10
-10.6087 -16.9775 1.04918 0.0471349 10
-7.2605 -11.6192 1.19869 0.575194 10
-7.2605 -11.6192 1.68229 0.573087 10
-7.26049 -11.6192 2.17005 0.570283 10
-7.26049 -11.6192 2.66323 0.566783 10
-7.26049 -11.6192 3.16315 0.562593 10
-7.26049 -11.6192 3.6712 0.557718 10
-5.36654 -8.65534 -2.72881 0.0982954 1
-6.22906 -10.0464 -2.72905 0.085425 1
-7.39925 -11.9338 -2.72939 0.0724506 1
-7.4307 -11.9845 -2.23341 0.733098 10
-7.4307 -11.9845 -1.73141 0.736704 10
-7.4307 -11.9845 -1.23369 0.488401 10
-7.43069 -11.9845 -0.739011 0.489595 10
-7.43069 -11.9845 -0.246137 0.490192 10
-7.43069 -11.9845 0.246137 0.490192 10
-7.43069 -11.9845 0.73901 0.489595 10
-7.20316 -11.6175 1.19592 0.57653 10
-7.20316 -11.6175 1.67839 0.574418 10
-7.20316 -11.6175 2.16502 0.571607 10
-7.20316 -11.6175 2.65706 0.5681 10
-7.20316 -11.6175 3.15582 0.5639 10
-7.20315 -11.6175 3.6627 0.559013 10
-5.33628 -8.674 -2.7288 0.0982957 1
-6.19393 -10.0681 -2.72904 0.0854254 1
-7.35752 -11.9595 -2.72938 0.072451 1
-7.37183 -11.9827 -2.22827 0.734788 10
-7.37182 -11.9827 -1.72742 0.738403 10
-7.37182 -11.9827 -1.23086 0.489527 10
-7.37182 -11.9827 -0.737311 0.490723 10
-7.37182 -11.9827 -0.245571 0.491322 10
-7.37182 -11.9827 0.24557 0.491322 10
-7.37181 -11.9827 0.737311 0.490724 10
-7.14609 -11.6158 1.19317 0.577859 10
-7.14609 -11.6158 1.67453 0.575743 10
-7.14609 -11.6158 2.16004 0.572925 10
-7.14609 -11.6158 2.65095 0.569409 10
-7.14609 -11.6158 3.14857 0.5652 10
-7.14608 -11.6158 3.65427 0.560302 10
-5.30595 -8.69254 -2.72879 0.098296 1
-6.15872 -10.0896 -2.72903 0.0854257 1
-7.31322 -11.981 -2.72845 0.73195 10
-7.31322 -11.981 -2.22318 0.736469 10
-7.31322 -11.981 -1.72348 0.740092 10
-7.34433 -12.032 -1.23327 0.319988 10
-7.34447 -12.0322 -0.738772 0.320765 10
-7.3446 -12.0324 -0.246062 0.32115 10
-7.34474 -12.0326 0.246066 0.321144 10
-7.34487 -12.0328 0.738813 0.320747 10
-7.08928 -11.6141 1.19044 0.579181 10
-7.08928 -11.6141 1.67071 0.57706 10
-7.08928 -11.6141 2.15511 0.574236 10
-7.08928 -11.6141 2.6449 0.570712 10
-7.08928 -11.6141 3.14138 0.566493 10
-7.08927 -11.6141 3.64593 0.561584 10
-5.27556 -8.71098 -2.72878 0.0982963 1
-6.12345 -10.111 -2.72902 0.085426 1
-7.25489 -11.9792 -2.72227 0.733611 10
-7.25489 -11.9792 -2.21815 0.738141 10
-7.25489 -11.9792 -1.71958 0.741772 10
-7.34163 -12.1225 -1.23991 0.318274 10
-7.34177 -12.1227 -0.742752 0.319046 10
-7.3419 -12.1229 -0.247387 0.319429 10
-7.34204 -12.1231 0.247392 0.319423 10
-7.34217 -12.1234 0.742793 0.319028 10
-7.03274 -11.6124 1.18775 0.580496 10
-7.03273 -11.6124 1.66692 0.57837 10
-7.03273 -11.6124 2.15023 0.575539 10
-7.03273 -11.6124 2.6389 0.572007 10
-7.03273 -11.6124 3.13426 0.567779 10
-7.03273 -11.6124 3.63767 0.562858 10
-5.2451 -8.72932 -2.72877 0.0982966 1
-6.08809 -10.1323 -2.72901 0.0854263 1
-7.19681 -11.9775 -2.71615 0.735264 10
-7.19681 -11.9775 -2.21316 0.739804 10
-7.19681 -11.9775 -1.71571 0.743443 10
-10.0615 -16.7451 -1.70913 0.746176 10
-10.0615 -16.7451 -1.02381 0.748 10
-10.0615 -16.7451 -0.340992 0.748913 10
-10.0615 -16.7451 0.340992 0.748913 10
-10.0615 -16.7451 1.02381 0.748001 10
-6.97644 -11.6107 1.18508 0.581804 10
-6.97644 -11.6107 1.66318 0.579673 10
-6.97643 -11.6107 2.14539 0.576836 10
-6.97643 -11.6107 2.63297 0.573296 10
-6.97643 -11.6107 3.12722 0.569058 10
-6.97643 -11.6107 3.6295 0.564127 10
-5.21459 -8.74754 -2.72876 0.0982969 1
-6.05266 -10.1534 -2.729 0.0854266 1
-7.139 -11.9758 -2.71009 0.736908 10
-7.139 -11.9758 -2.20823 0.741458 10
-7.139 -11.9758 -1.71188 0.745105 10
-7.139 -11.9758 -1.21978 0.49397 10
-7.13899 -11.9758 -0.730679 0.495178 10
-7.13899 -11.9758 -0.243362 0.495782 10
-7.13899 -11.9758 0.243361 0.495782 10
-7.13899 -11.9758 0.730678 0.495178 10
-6.9204 -11.6091 1.18243 0.583104 10
-6.92039 -11.6091 1.65947 0.580969 10
-6.92039 -11.6091 2.14061 0.578126 10
-6.92039 -11.6091 2.6271 0.574578 10
-6.92039 -11.6091 3.12024 0.57033 10
-6.92039 -11.6091 3.6214 0.565388 10
-5.184 -8.76567 -2.72875 0.0982972 1
-6.01716 -10.1745 -2.72899 0.0854269 1
-7.08144 -11.9741 -2.70409 0.738543 10
-7.08144 -11.9741 -2.20334 0.743103 10
-7.08144 -11.9741 -1.7081 0.746759 10
-7.08144 -11.9741 -1.21708 0.495066 10
-7.08144 -11.9741 -0.729061 0.496276 10
-7.08143 -11.974 -0.242823 0.496882 10
-7.08143 -11.974 0.242823 0.496882 10
-7.08143 -11.974 0.72906 0.496277 10
-6.90544 -11.6765 1.18683 0.36957 10
-6.90557 -11.6767 1.66567 0.368209 10
-6.9057 -11.6769 2.14866 0.3664 10
-6.90584 -11.6771 2.63703 0.364145 10
-6.90597 -11.6774 3.1321 0.361446 10
-6.90611 -11.6776 3.63524 0.358306 10
-5.15336 -8.78368 -2.72875 0.0982976 1
-5.98159 -10.1954 -2.72898 0.0854273 1
-7.02414 -11.9724 -2.69815 0.740169 10
-7.02414 -11.9724 -2.1985 0.744739 10
-7.02414 -11.9723 -1.70434 0.748402 10
-7.07348 -12.0565 -1.22294 0.311377 10
-7.07362 -12.0567 -0.732585 0.312132 10
-7.07375 -12.0569 -0.244001 0.312507 10
-7.07388 -12.0571 0.244006 0.312501 10
-7.07402 -12.0574 0.732626 0.312114 10
-6.90278 -11.7655 1.19343 0.367528 10
-6.90292 -11.7657 1.67493 0.366175 10
-6.90305 -11.766 2.1606 0.364376 10
-6.90318 -11.7662 2.65168 0.362132 10
-6.90332 -11.7664 3.1495 0.359448 10
-6.90346 -11.7667 3.65544 0.356326 10
-5.12265 -8.80159 -2.72874 0.0982979 1
-5.94594 -10.2161 -2.72897 0.0854276 1
-6.96709 -11.9706 -2.69227 0.741786 10
-6.96708 -11.9706 -2.19371 0.746366 10
-6.96708 -11.9706 -1.70063 0.750037 10
-7.07073 -12.1487 -1.22979 0.309643 10
-7.07086 -12.149 -0.736687 0.310394 10
-7.071 -12.1492 -0.245367 0.310767 10
-7.07113 -12.1494 0.245372 0.310761 10
-7.07126 -12.1496 0.736729 0.310376 10
-6.9001 -11.8555 1.20011 0.365481 10
-6.90023 -11.8558 1.68431 0.364136 10
-6.75374 -11.6041 2.12653 0.581952 10
-6.9005 -11.8562 2.66654 0.360116 10
-6.90063 -11.8565 3.16714 0.357446 10
-6.90077 -11.8567 3.67591 0.354341 10
-5.09188 -8.81939 -2.72873 0.0982982 1
-5.91022 -10.2368 -2.72896 0.0854279 1
-6.91028 -11.969 -2.68644 0.743394 10
-6.91028 -11.969 -2.18896 0.747984 10
-6.91027 -11.9689 -1.69695 0.751663 10
-14.2591 -24.6974 -2.49501 0.466152 10
-14.2629 -24.7041 -1.49497 0.499536 10
-14.2629 -24.704 -0.497919 0.500145 10
-14.2629 -24.704 0.497919 0.500145 10
-10.0114 -17.3403 1.04935 0.0471273 10
-6.89738 -11.9466 1.20688 0.36343 10
-6.89751 -11.9468 1.69382 0.362092 10
-6.69867 -11.6024 2.12193 0.583214 10
-6.89778 -11.9473 2.68159 0.358095 10
-6.89792 -11.9475 3.18502 0.35544 10
-6.89806 -11.9478 3.69666 0.352353 10
-5.06104 -8.83708 -2.72872 0.0982985 1
-5.87443 -10.2573 -2.72895 0.0854282 1
-6.85372 -11.9673 -2.68068 0.744992 10
-6.85372 -11.9673 -2.18426 0.749593 10
-6.85372 -11.9673 -1.69331 0.75328 10
-6.85372 -11.9673 -1.20655 0.499389 10
-6.85371 -11.9673 -0.72275 0.50061 10
-6.85371 -11.9672 -0.240721 0.501221 10
-6.85371 -11.9672 0.240721 0.501221 10
-6.85371 -11.9672 0.722749 0.500611 10
-6.85371 -11.9672 1.20654 0.589501 10
-6.8537 -11.9672 1.69331 0.587342 10
-6.64385 -11.6008 2.11738 0.584468 10
-6.86651 -11.9896 2.68568 0.227308 10
-6.86664 -11.9898 3.18988 0.225623 10
-6.86678 -11.9901 3.7023 0.223663 10
-5.03015 -8.85466 -2.72871 0.0982988 1
-5.83857 -10.2777 -2.72894 0.0854285 1
-6.7974 -11.9656 -2.67497 0.746582 10
-6.7974 -11.9656 -2.17961 0.751192 10
-6.79739 -11.9656 -1.6897 0.754887 10
-6.80565 -11.9801 -1.20544 0.304419 10
-6.80578 -11.9803 -0.722101 0.305157 10
-6.80591 -11.9806 -0.240509 0.305523 10
-6.80604 -11.9808 0.240514 0.305518 10
-6.80617 -11.981 0.722143 0.30514 10
-6.79738 -11.9656 1.20397 0.590759 10
-6.79738 -11.9656 1.6897 0.588596 10
-6.58925 -11.5992 2.11287 0.585715 10
-6.83638 -12.0342 2.69031 0.371615 10
-6.83638 -12.0342 3.19532 0.368867 10
-6.83638 -12.0342 3.70854 0.365671 10
-4.99919 -8.87214 -2.7287 0.0982991 1
-5.80264 -10.298 -2.72893 0.0854289 1
-6.74132 -11.9639 -2.66932 0.748163 10
-6.74132 -11.9639 -2.17501 0.752782 10
-6.74131 -11.9639 -1.68613 0.756485 10
-6.80287 -12.0731 -1.2124 0.30267 10
-6.803 -12.0734 -0.726273 0.303404 10
-6.80313 -12.0736 -0.241899 0.303768 10
-6.80327 -12.0738 0.241903 0.303763 10
-6.8034 -12.0741 0.726315 0.303387 10
-6.7413 -11.9639 1.20143 0.59201 10
-6.7413 -11.9639 1.68613 0.589842 10
-6.53489 -11.5976 2.10841 0.586955 10
-6.77998 -12.0325 3.7007 0.366445 10
-4.96818 -8.88951 -2.72869 0.0982995 1
-5.76663 -10.3182 -2.72892 0.0854292 1
-6.68547 -11.9622 -2.66373 0.749734 10
-6.68547 -11.9622 -2.17045 0.754364 10
-6.68546 -11.9622 -1.6826 0.758074 10
-14.2299 -25.4614 -2.55187 0.077461 10
-14.2595 -25.5143 -1.53181 0.503797 10
-14.2595 -25.5143 -0.510188 0.504411 10
-14.2595 -25.5143 0.510187 0.504411 10
-9.76896 -17.4795 1.04942 0.0471242 10
-6.68545 -11.9622 1.19891 0.593253 10
-6.68545 -11.9622 1.6826 0.591081 10
-6.48075 -11.5959 2.10399 0.588188 10
-6.72381 -12.0308 3.69295 0.367215 10
-4.9371 -8.90676 -2.72868 0.0982998 1
-5.73056 -10.3382 -2.72891 0.0854295 1
-6.62986 -11.9606 -2.65819 0.751296 10
-6.62986 -11.9606 -2.16593 0.755936 10
-6.62986 -11.9606 -1.6791 0.759654 10
-14.1408 -25.5107 -2.55185 0.0774617 10
-14.2931 -25.7854 -1.54508 0.504846 10
-14.2931 -25.7854 -0.514608 0.505462 10
-14.2931 -25.7854 0.514608 0.505462 10
-9.70805 -17.5138 1.04944 0.0471234 10
-6.62985 -11.9606 1.19642 0.59449 10
-6.62984 -11.9605 1.6791 0.592312 10
-6.42684 -11.5943 2.09961 0.589414 10
-6.66788 -12.0292 3.68527 0.36798 10
-4.90597 -8.92391 -2.72867 0.0983001 1
-5.69441 -10.3581 -2.7289 0.0854298 1
-6.57448 -11.9589 -2.6527 0.75285 10
-6.57448 -11.9589 -2.16147 0.757498 10
-6.57447 -11.9589 -1.67564 0.761224 10
-6.57447 -11.9589 -1.19395 0.504656 10
-6.57447 -11.9589 -0.715207 0.50589 10
-6.57447 -11.9589 -0.238208 0.506507 10
-6.57447 -11.9589 0.238208 0.506507 10
-6.57447 -11.9589 0.715206 0.50589 10
-6.57446 -11.9589 1.19395 0.595719 10
-6.57446 -11.9589 1.67563 0.593537 10
-6.37316 -11.5927 2.09528 0.590632 10
-6.61218 -12.0275 3.67766 0.368741 10
-4.87477 -8.94096 -2.72867 0.0983004 1
-5.6582 -10.3779 -2.72889 0.0854301 1
-6.51932 -11.9573 -2.64727 0.754394 10
-6.51932 -11.9573 -2.15704 0.759052 10
-6.51932 -11.9573 -1.67221 0.762786 10
-6.53534 -11.9867 -1.19444 0.295639 10
-6.53547 -11.9869 -0.715511 0.296355 10
-6.5356 -11.9871 -0.238315 0.296711 10
-6.53573 -11.9874 0.238319 0.296705 10
-6.53586 -11.9876 0.715554 0.296338 10
-6.51931 -11.9573 1.19151 0.59694 10
-6.51931 -11.9572 1.6722 0.594754 10
-6.31969 -11.5911 2.09099 0.591844 10
-6.55671 -12.0258 3.67014 0.369497 10
-4.84351 -8.95789 -2.72866 0.0983007 1
-5.62192 -10.3975 -2.72888 0.0854305 1
-6.46439 -11.9556 -2.6419 0.755929 10
-6.46439 -11.9556 -2.15266 0.760596 10
-6.46439 -11.9556 -1.66881 0.764337 10
-6.5325 -12.0816 -1.20162 0.293871 10
-6.53263 -12.0818 -0.719813 0.294584 10
-6.53276 -12.0821 -0.239748 0.294937 10
-6.53289 -12.0823 0.239752 0.294931 10
-6.53302 -12.0826 0.719856 0.294566 10
-6.46438 -11.9556 1.18909 0.598155 10
-6.46437 -11.9556 1.66881 0.595964 10
-6.26644 -11.5895 2.08675 0.593048 10
-6.50146 -12.0242 3.66268 0.370249 10
-4.8122 -8.97471 -2.72865 0.0983011 1
-5.58557 -10.417 -2.72887 0.0854308 1
-6.40968 -11.954 -2.63658 0.757454 10
-6.40968 -11.954 -2.14833 0.762131 10
-6.40968 -11.954 -1.66545 0.76588 10
-13.7827 -25.7046 -2.55175 0.0774648 10
-31.6071 -58.947 -1.1675 0.34217 10
-31.6071 -58.947 1.1675 0.342163 10
-9.4632 -17.6488 1.04951 0.0471202 10
-6.40967 -11.954 1.18669 0.599362 10
-6.40967 -11.954 1.66545 0.597167 10
-6.21341 -11.588 2.08254 0.594245 10
-4.78083 -8.99142 -2.72864 0.0983014 1
-5.54915 -10.4364 -2.72886 0.0854311 1
-6.3552 -11.9524 -2.63131 0.75897 10
-6.35519 -11.9524 -2.14404 0.763657 10
-6.35519 -11.9524 -1.66212 0.767413 10
-13.6927 -25.7523 -2.55172 0.0774656 10
-31.3384 -58.9389 -1.16517 0.340092 10
-31.3384 -58.9389 1.16517 0.340085 10
-9.4017 -17.682 1.04952 0.0471195 10
-6.35518 -11.9524 1.18432 0.600562 10
-6.35518 -11.9524 1.66212 0.598363 10
-6.16059 -11.5864 2.07838 0.595434 10
-6.16059 -11.5864 2.55073 0.59178 10
-6.16059 -11.5864 3.02954 0.587405 10
-6.16058 -11.5864 3.51613 0.582315 10
-4.74939 -9.00803 -2.72863 0.0983017 1
-5.51267 -10.4557 -2.72885 0.0854314 1
-6.30092 -11.9508 -2.62609 0.760478 10
-6.30092 -11.9508 -2.13979 0.765174 10
-6.30092 -11.9508 -1.65883 0.768937 10
-13.6026 -25.7997 -2.55169 0.0774664 10
-31.0708 -58.931 -1.16286 0.338009 10
-31.0708 -58.9309 1.16286 0.338002 10
-9.34007 -17.715 1.04954 0.0471187 10
-6.30091 -11.9507 1.18198 0.601755 10
-6.30091 -11.9507 1.65883 0.599551 10
-6.10798 -11.5848 2.07426 0.596617 10
-6.10797 -11.5848 2.54568 0.592955 10
-6.10797 -11.5848 3.02353 0.588572 10
-6.10797 -11.5848 3.50916 0.583471 10
-4.71791 -9.02452 -2.72862 0.098302 1
-5.47612 -10.4748 -2.72884 0.0854318 1
-6.24686 -11.9491 -2.62093 0.761975 10
-6.24686 -11.9491 -2.13558 0.766681 10
-6.24686 -11.9491 -1.65557 0.770452 10
-13.5124 -25.8467 -2.55167 0.0774672 10
-30.8042 -58.923 -1.16057 0.335923 10
-30.8042 -58.923 1.16057 0.335916 10
-9.27834 -17.7478 1.04956 0.0471179 10
-6.24685 -11.9491 1.17965 0.60294 10
-6.24685 -11.9491 1.65556 0.600732 10
-6.06743 -11.6059 2.07424 0.335574 10
-6.06755 -11.6062 2.5457 0.333508 10
-6.06768 -11.6064 3.02363 0.331035 10
-6.06782 -11.6067 3.50935 0.328159 10
-4.68636 -9.04091 -2.72861 0.0983024 1
-5.4395 -10.4939 -2.72883 0.0854321 1
-6.19301 -11.9475 -2.61582 0.763464 10
-6.19301 -11.9475 -2.13142 0.768179 10
-6.19301 -11.9475 -1.65234 0.771957 10
-13.4219 -25.8935 -2.55164 0.077468 10
-14.252 -27.495 -1.62303 0.776688 10
-14.252 -27.495 -0.54057 0.777636 10
-14.252 -27.495 0.54057 0.777636 10
-9.21648 -17.7804 1.04958 0.0471171 10
-6.193 -11.9475 1.17735 0.604118 10
-6.193 -11.9475 1.65234 0.601905 10
-6.06463 -11.6999 2.08723 0.333485 10
-6.06475 -11.7001 2.56165 0.331432 10
-6.06488 -11.7004 3.04257 0.328975 10
-6.06502 -11.7006 3.53133 0.326116 10
-4.65476 -9.05718 -2.7286 0.0983027 1
-5.40281 -10.5127 -2.72882 0.0854324 1
-6.13938 -11.9459 -2.61076 0.764943 10
-6.13938 -11.9459 -2.12729 0.769667 10
-6.13938 -11.9459 -1.64914 0.773452 10
-6.13937 -11.9459 -1.17508 0.776296 10
-6.13937 -11.9459 -0.703899 0.778193 10
-6.13937 -11.9459 -0.234442 0.779143 10
-6.13937 -11.9459 0.234442 0.779143 10
-6.13937 -11.9459 0.703898 0.778194 10
-6.13937 -11.9459 1.17508 0.605288 10
-6.13936 -11.9459 1.64914 0.603072 10
-6.06179 -11.795 2.10041 0.331393 10
-6.06192 -11.7952 2.57782 0.329352 10
-6.06205 -11.7955 3.06178 0.32691 10
-6.06218 -11.7957 3.55363 0.32407 10
-4.6231 -9.07334 -2.72859 0.098303 1
-5.36606 -10.5315 -2.72881 0.0854328 1
-6.08595 -11.9443 -2.60576 0.766413 10
-6.08595 -11.9443 -2.12321 0.771146 10
-6.08594 -11.9443 -1.64598 0.774939 10
-6.08594 -11.9443 -1.17282 0.777787 10
-6.08594 -11.9443 -0.702549 0.779689 10
-6.08594 -11.9443 -0.233993 0.78064 10
-6.08594 -11.9443 0.233992 0.78064 10
-6.08594 -11.9443 0.702548 0.779689 10
-6.08593 -11.9443 1.17282 0.606451 10
-6.08593 -11.9443 1.64598 0.60423 10
-6.05892 -11.8913 2.11378 0.329296 10
-6.05905 -11.8915 2.59424 0.327268 10
-6.05918 -11.8918 3.08128 0.324842 10
-6.05931 -11.8921 3.57626 0.322019 10
-4.59139 -9.0894 -2.72859 0.0983033 1
-5.32925 -10.5501 -2.7288 0.0854331 1
-6.03272 -11.9428 -2.6008 0.767874 10
-6.03272 -11.9427 -2.11917 0.772615 10
-6.03272 -11.9427 -1.64285 0.776415 10
-6.03271 -11.9427 -1.17059 0.77927 10
-6.03271 -11.9427 -0.701213 0.781175 10
-6.03271 -11.9427 -0.233548 0.782128 10
-6.03271 -11.9427 0.233547 0.782128 10
-6.03271 -11.9427 0.701212 0.781175 10
-6.03271 -11.9427 1.17059 0.607607 10
-6.0327 -11.9427 1.64285 0.605382 10
-6.0327 -11.9427 2.11917 0.602419 10
-6.0327 -11.9427 2.60079 0.598722 10
-6.0327 -11.9427 3.08899 0.594296 10
-6.0327 -11.9427 3.58513 0.589146 10
-4.55961 -9.10534 -2.72858 0.0983037 1
-5.29237 -10.5686 -2.72879 0.0854334 1
-5.97969 -11.9412 -2.59589 0.769325 10
-5.97969 -11.9412 -2.11518 0.774076 10
-5.97969 -11.9412 -1.63975 0.777883 10
-5.97969 -11.9412 -1.16838 0.780743 10
-5.97969 -11.9412 -0.69989 0.782651 10
-5.97968 -11.9412 -0.233107 0.783606 10
-5.97968 -11.9411 0.233107 0.783606 10
-5.97968 -11.9411 0.699889 0.782652 10
-5.97968 -11.9411 1.16838 0.608756 10
-5.97968 -11.9411 1.63975 0.606526 10
-5.97968 -11.9411 2.11517 0.603558 10
-5.97967 -11.9411 2.59588 0.599854 10
-5.97967 -11.9411 3.08317 0.59542 10
-5.97967 -11.9411 3.57837 0.59026 10
-4.52779 -9.12117 -2.72857 0.098304 1
-5.25542 -10.587 -2.72878 0.0854337 1
-5.92687 -11.9396 -2.59104 0.770767 10
-5.92686 -11.9396 -2.11122 0.775526 10
-5.92686 -11.9396 -1.63668 0.779341 10
-5.92686 -11.9396 -1.1662 0.782206 10
-5.92686 -11.9396 -0.698581 0.784118 10
-5.92686 -11.9396 -0.232671 0.785075 10
-5.92686 -11.9396 0.232671 0.785075 10
-5.92685 -11.9396 0.69858 0.784119 10
-5.92685 -11.9396 1.1662 0.609896 10
-5.92685 -11.9396 1.63668 0.607663 10
-5.92685 -11.9396 2.11122 0.604689 10
-5.92685 -11.9396 2.59103 0.600978 10
-5.92685 -11.9396 3.0774 0.596536 10
-5.92684 -11.9395 3.57168 0.591366 10
-4.49591 -9.13688 -2.72856 0.0983043 1
-5.21842 -10.6052 -2.72877 0.0854341 1
-5.87424 -11.938 -2.58623 0.772199 10
-5.87424 -11.938 -2.1073 0.776968 10
-5.87423 -11.938 -1.63365 0.780789 10
-5.87423 -11.938 -1.16404 0.78366 10
-5.87423 -11.938 -0.697285 0.785575 10
-5.87423 -11.938 -0.232239 0.786534 10
-5.87423 -11.938 0.232239 0.786534 10
-5.87423 -11.938 0.697284 0.785576 10
-5.87422 -11.938 1.16403 0.61103 10
-5.87422 -11.938 1.63364 0.608792 10
-5.87422 -11.938 2.1073 0.605813 10
-5.87422 -11.938 2.58622 0.602095 10
-5.87422 -11.938 3.07169 0.597644 10
-5.87422 -11.938 3.56505 0.592465 10
-4.46397 -9.15249 -2.72855 0.0983046 1
-5.18135 -10.6233 -2.72876 0.0854344 1
-5.8218 -11.9365 -2.58147 0.773623 10
-5.8218 -11.9365 -2.10343 0.7784 10
-5.82179 -11.9364 -1.63064 0.782228 10
-5.82179 -11.9364 -1.16189 0.785104 10
-5.82179 -11.9364 -0.696002 0.787023 10
-5.82179 -11.9364 -0.231812 0.787983 10
-5.82179 -11.9364 0.231812 0.787983 10
-5.82179 -11.9364 0.696001 0.787024 10
-5.82178 -11.9364 1.16189 0.612156 10
-5.82178 -11.9364 1.63064 0.609914 10
-5.82178 -11.9364 2.10342 0.606929 10
-5.82178 -11.9364 2.58146 0.603205 10
-5.82178 -11.9364 3.06604 0.598746 10
-5.82178 -11.9364 3.55849 0.593557 10
-4.43198 -9.16799 -2.72854 0.098305 1
-5.14421 -10.6413 -2.72875 0.0854347 1
-5.76956 -11.9349 -2.57676 0.775036 10
-5.76955 -11.9349 -2.09959 0.779822 10
-5.81371 -12.0262 -1.64012 0.408156 10
-5.81383 -12.0265 -1.16868 0.409647 10
-5.81396 -12.0267 -0.70008 0.41064 10
-5.81409 -12.027 -0.233176 0.411132 10
-5.81421 -12.0273 0.23318 0.411123 10
-5.81434 -12.0275 0.700126 0.410613 10
-5.76954 -11.9349 1.15977 0.613275 10
-5.76954 -11.9349 1.62766 0.611029 10
-5.76954 -11.9349 2.09959 0.608038 10
-5.76954 -11.9349 2.57676 0.604307 10
-5.76954 -11.9349 3.06045 0.59984 10
-5.76954 -11.9349 3.552 0.594641 10
-4.39993 -9.18337 -2.72853 0.0983053 1
-5.10701 -10.6592 -2.72873 0.0854351 1
-5.7175 -11.9333 -2.5721 0.776441 10
-5.71749 -11.9333 -2.09579 0.781235 10
-5.80447 -12.1149 -1.64944 0.108378 10
-5.8108 -12.1281 -1.17657 0.406899 10
-5.81093 -12.1283 -0.704809 0.407885 10
-5.81105 -12.1286 -0.23475 0.408373 10
-5.81118 -12.1289 0.234755 0.408365 10
-5.81131 -12.1291 0.704855 0.407858 10
-5.71748 -11.9333 1.15768 0.614386 10
-5.71748 -11.9333 1.62472 0.612136 10
-5.71748 -11.9333 2.09579 0.60914 10
-5.71748 -11.9333 2.57209 0.605402 10
-5.71748 -11.9333 3.05491 0.600927 10
-5.71748 -11.9333 3.54558 0.595719 10
-4.36784 -9.19864 -2.72852 0.0983056 1
-5.06976 -10.6769 -2.72872 0.0854354 1
-5.66563 -11.9318 -2.56749 0.777835 10
-5.66563 -11.9318 -2.09204 0.782638 10
-5.80759 -12.2308 -1.66245 0.402675 10
-5.80772 -12.231 -1.18458 0.404146 10
-5.80785 -12.2313 -0.70961 0.405125 10
-5.80798 -12.2316 -0.23635 0.405611 10
-5.8081 -12.2318 0.236355 0.405602 10
-5.80823 -12.2321 0.709656 0.405099 10
-5.66562 -11.9318 1.1556 0.615489 10
-5.66562 -11.9318 1.62181 0.613235 10
-5.66562 -11.9318 2.09203 0.610234 10
-5.66562 -11.9318 2.56748 0.60649 10
-5.66561 -11.9318 3.04943 0.602006 10
-5.66561 -11.9317 3.53922 0.596789 10
-4.33569 -9.2138 -2.72851 0.098306 1
-5.03244 -10.6945 -2.72871 0.0854357 1
-5.61395 -11.9302 -2.56293 0.77922 10
-5.61395 -11.9302 -2.08832 0.784032 10
-5.80447 -12.3351 -1.67387 0.399927 10
-5.8046 -12.3354 -1.19272 0.401388 10
-5.80473 -12.3357 -0.714485 0.402361 10
-5.80486 -12.336 -0.237974 0.402842 10
-5.80499 -12.3362 0.237979 0.402834 10
-5.80512 -12.3365 0.714533 0.402334 10
-5.61394 -11.9302 1.15355 0.616586 10
-5.61394 -11.9302 1.61892 0.614328 10
-5.61393 -11.9302 2.08831 0.611321 10
-5.61393 -11.9302 2.56292 0.60757 10
-5.61393 -11.9302 3.04401 0.603078 10
-5.61393 -11.9302 3.53293 0.597852 10
-4.30348 -9.22885 -2.7285 0.0983063 1
-4.99506 -10.7119 -2.7287 0.0854361 1
-5.56245 -11.9287 -2.55841 0.780596 10
-5.56245 -11.9287 -2.08464 0.785416 10
-5.80131 -12.4409 -1.68547 0.397175 10
-5.80144 -12.4412 -1.20099 0.398626 10
-5.80157 -12.4415 -0.719438 0.399591 10
-5.8017 -12.4418 -0.239623 0.40007 10
-5.80183 -12.4421 0.239628 0.400061 10
-5.80196 -12.4423 0.719486 0.399564 10
-5.56244 -11.9287 1.15151 0.617674 10
-5.56244 -11.9287 1.61607 0.615412 10
-5.56243 -11.9287 2.08463 0.6124 10
-5.56243 -11.9287 2.5584 0.608642 10
-5.56243 -11.9287 3.03865 0.604143 10
-5.56243 -11.9287 3.5267 0.598907 10
-4.27123 -9.24378 -2.72849 0.0983066 1
-4.95762 -10.7293 -2.72869 0.0854364 1
-5.51113 -11.9272 -2.55394 0.781963 10
-5.51113 -11.9272 -2.08099 0.786791 10
-8.71218 -18.8549 -2.55028 0.108381 10
-9.91399 -21.4558 -2.06784 0.395858 10
-9.91421 -21.4563 -1.23872 0.396817 10
-9.91443 -21.4568 -0.412579 0.397292 10
-9.91465 -21.4573 0.412588 0.397283 10
-8.40228 -18.1842 1.04981 0.0471067 10
-5.51112 -11.9272 1.1495 0.618755 10
-5.51112 -11.9271 1.61325 0.616489 10
-5.51112 -11.9271 2.08099 0.613472 10
-5.51111 -11.9271 2.55393 0.609708 10
-5.51111 -11.9271 3.03334 0.6052 10
-5.51111 -11.9271 3.52054 0.599956 10
-4.23892 -9.25861 -2.72848 0.098307 1
-4.92011 -10.7465 -2.72868 0.0854367 1
-5.45999 -11.9257 -2.54952 0.783319 10
-5.45999 -11.9256 -2.07739 0.788156 10
-8.64625 -18.885 -2.55026 0.108382 10
-9.90843 -21.6419 -2.08243 0.393086 10
-9.90865 -21.6424 -1.24745 0.394037 10
-9.90888 -21.6429 -0.415489 0.394509 10
-9.9091 -21.6433 0.415498 0.3945 10
-8.3389 -18.2137 1.04983 0.0471058 10
-5.45998 -11.9256 1.14751 0.619829 10
-5.45998 -11.9256 1.61045 0.617559 10
-5.45997 -11.9256 2.07738 0.614537 10
-5.45997 -11.9256 2.54951 0.610766 10
-5.45997 -11.9256 3.02808 0.60625 10
-5.45997 -11.9256 3.51444 0.600997 10
-4.20656 -9.27332 -2.72848 0.0983073 1
-4.88255 -10.7635 -2.72867 0.0854371 1
-5.40903 -11.9241 -2.54514 0.784666 10
-5.40902 -11.9241 -2.07382 0.789512 10
-8.58021 -18.915 -2.55025 0.108382 10
-9.90279 -21.8306 -2.09725 0.390308 10
-9.90302 -21.8311 -1.25633 0.391253 10
-9.90324 -21.8316 -0.418446 0.391722 10
-9.90346 -21.8321 0.418455 0.391713 10
-8.27541 -18.243 1.04985 0.047105 10
-5.40901 -11.9241 1.14554 0.620895 10
-5.40901 -11.9241 1.60769 0.618621 10
-5.40901 -11.9241 2.07382 0.615594 10
-5.40901 -11.9241 2.54513 0.611816 10
-5.40901 -11.9241 3.02289 0.607293 10
-5.40901 -11.9241 3.50841 0.60203 10
-4.17415 -9.28791 -2.72847 0.0983076 1
-4.84493 -10.7805 -2.72866 0.0854374 1
-5.35823 -11.9226 -2.54081 0.786004 10
-5.35823 -11.9226 -2.07029 0.790858 10
-8.51407 -18.9447 -2.55023 0.108383 10
-11.9536 -26.598 -2.55122 0.0774807 10
-26.4222 -58.7921 1.12509 0.299838 10
-8.21183 -18.2721 1.04986 0.0471042 10
-5.35822 -11.9226 1.14359 0.621953 10
-5.35822 -11.9226 1.60495 0.619676 10
-5.35822 -11.9226 2.07029 0.616643 10
-5.35822 -11.9226 2.5408 0.612859 10
-5.35822 -11.9226 3.01774 0.608328 10
-5.35822 -11.9226 3.50244 0.603057 10
-4.14169 -9.30239 -2.72846 0.098308 1
-4.80725 -10.7973 -2.72865 0.0854378 1
-5.30762 -11.9211 -2.53652 0.787332 10
-5.30761 -11.9211 -2.0668 0.792194 10
-8.44783 -18.9741 -2.55021 0.108384 10
-11.8606 -26.6393 -2.5512 0.0774815 10
-12.3947 -27.839 -1.59705 0.254746 10
-12.395 -27.8396 -0.53193 0.25505 10
-12.3953 -27.8403 0.531942 0.255045 10
-8.14813 -18.301 1.04988 0.0471034 10
-5.30761 -11.9211 1.14166 0.623004 10
-5.3076 -11.9211 1.60224 0.620723 10
-5.3076 -11.9211 2.0668 0.617685 10
-5.3076 -11.9211 2.53651 0.613895 10
-5.3076 -11.9211 3.01265 0.609356 10
-5.3076 -11.9211 3.49653 0.604075 10
-4.10918 -9.31676 -2.72845 0.0983083 1
-4.76952 -10.8139 -2.72864 0.0854381 1
-5.25717 -11.9196 -2.53228 0.788651 10
-5.25717 -11.9196 -2.06335 0.793521 10
-8.38148 -19.0034 -2.55019 0.108385 10
-11.7674 -26.6802 -2.55117 0.0774823 10
-25.9239 -58.7773 1.12132 0.295522 10
-8.08434 -18.3297 1.0499 0.0471026 10
-5.25716 -11.9196 1.13975 0.624048 10
-5.25716 -11.9196 1.59957 0.621762 10
-5.25715 -11.9196 2.06334 0.618719 10
-5.25715 -11.9196 2.53227 0.614923 10
-5.25715 -11.9196 3.00761 0.610377 10
-5.25715 -11.9195 3.49068 0.605087 10
-4.07662 -9.33102 -2.72844 0.0983086 1
-4.73172 -10.8305 -2.72863 0.0854384 1
-5.20689 -11.9181 -2.52808 0.78996 10
-5.20689 -11.9181 -2.05993 0.794838 10
-8.31504 -19.0324 -2.55017 0.108386 10
-11.6741 -26.7209 -2.55114 0.0774831 10
-12.1421 -27.7921 -1.58946 0.530827 10
-12.1421 -27.7921 -0.52939 0.531475 10
-12.1421 -27.7921 0.52939 0.531475 10
-8.02045 -18.3581 1.04992 0.0471018 10
-5.20688 -11.9181 1.13786 0.625083 10
-5.20688 -11.9181 1.59692 0.622794 10
-5.20687 -11.9181 2.05992 0.619746 10
-5.20687 -11.9181 2.52808 0.615943 10
-5.20687 -11.9181 3.00263 0.61139 10
-5.20687 -11.9181 3.4849 0.606091 10
-4.04401 -9.34516 -2.72843 0.098309 1
-4.69387 -10.8469 -2.72862 0.0854388 1
-5.15677 -11.9166 -2.52393 0.791259 10
-5.15677 -11.9166 -2.05654 0.796145 10
-8.24849 -19.0611 -2.55015 0.108386 10
-11.5806 -26.7612 -2.55112 0.0774839 10
-25.4288 -58.7625 1.11762 0.291191 10
-7.95646 -18.3863 1.04994 0.0471009 10
-5.15676 -11.9166 1.13599 0.626111 10
-5.15676 -11.9166 1.59429 0.623818 10
-5.15676 -11.9166 2.05654 0.620765 10
-5.15676 -11.9166 2.52393 0.616956 10
-5.15676 -11.9166 2.9977 0.612395 10
-5.15676 -11.9166 3.47918 0.607088 10
-4.01135 -9.35919 -2.72842 0.0983093 1
-4.65596 -10.8632 -2.72861 0.0854391 1
-5.10682 -11.9151 -2.51983 0.792548 10
-5.10682 -11.9151 -2.0532 0.797442 10
-8.18184 -19.0897 -2.55013 0.108387 10
-11.487 -26.8011 -2.55109 0.0774847 10
-11.9087 -27.7852 -1.58427 0.532566 10
-11.9087 -27.7852 -0.527661 0.533216 10
-11.9087 -27.7852 0.52766 0.533216 10
-7.89237 -18.4143 1.04996 0.0471001 10
-5.10681 -11.9151 1.13415 0.627132 10
-5.10681 -11.9151 1.5917 0.624835 10
-5.10681 -11.9151 2.05319 0.621777 10
-5.10681 -11.9151 2.51982 0.617962 10
-5.10681 -11.9151 2.99282 0.613393 10
-5.1068 -11.9151 3.47352 0.608078 10
-3.97865 -9.3731 -2.72841 0.0983096 1
-4.61799 -10.8793 -2.7286 0.0854394 1
-5.05703 -11.9136 -2.51576 0.793828 10
-5.05703 -11.9136 -2.04989 0.79873 10
-8.1151 -19.118 -2.55011 0.108388 10
-11.3932 -26.8408 -2.55106 0.0774856 10
-11.852 -27.9216 -1.58968 0.245473 10
-11.8523 -27.9223 -0.529476 0.245767 10
-11.8526 -27.9229 0.529488 0.245761 10
-7.82818 -18.442 1.04997 0.0470993 10
-5.05702 -11.9136 1.13232 0.628145 10
-5.05702 -11.9136 1.58913 0.625844 10
