VERSION 0.7
FIELDS x y z intensity label
SIZE 4 4 4 4 4
TYPE F F F F F
COUNT 1 1 1 1 1
WIDTH 1280
HEIGHT 1
VIEWPOINT 11.0123 7.49929 2.75117 0.999999 1.85819e-05 0.00112097 -0.00031064
POINTS 1280
DATA ascii
6.07052 -22.0389 0.399016 0.235863 10
5.70807 -20.723 1.12649 0.172327 10
5.72891 -20.7987 1.88742 0.1326 10
5.79967 -21.0556 2.68158 0.664307 10
5.79966 -21.0556 3.45907 0.661057 10
5.70122 -20.6982 4.17315 0.180824 10
5.72197 -20.7735 4.97455 0.129852 10
5.69768 -20.6853 5.74903 0.166987 10
2.56435 -9.18448 -2.5551 0.0825832 4
2.97509 -10.6556 -2.55412 0.0582758 4
1.32581 -4.7485 -0.958318 0.652202 8
1.3258 -4.7485 -0.780853 0.679084 8
1.3258 -4.74849 -0.605341 0.656178 8
1.3258 -4.74849 -0.431328 0.628954 8
1.3258 -4.74848 -0.258375 0.604084 8
6.13008 -21.9555 -0.397892 0.857425 10
6.13008 -21.9555 0.397891 0.857426 10
5.70793 -20.4435 1.11238 0.174514 10
5.72879 -20.5182 1.86377 0.134282 10
5.87881 -21.0555 2.68417 0.663666 10
5.8788 -21.0555 3.46241 0.660419 10
5.70117 -20.4193 4.12091 0.183116 10
5.72194 -20.4937 4.9123 0.131498 10
5.72017 -20.4874 5.69953 0.130399 10
2.59632 -9.17522 -2.55503 0.0897669 4
3.01217 -10.6448 -2.55404 0.0613997 4
1.34369 -4.74849 -0.959256 0.658047 8
1.34369 -4.74849 -0.781617 0.675158 8
1.34368 -4.74848 -0.605933 0.64898 8
1.34368 -4.74847 -0.43175 0.625049 8
1.34368 -4.74847 -0.258628 0.596898 8
6.21276 -21.9555 -0.398282 0.856586 10
6.21276 -21.9554 0.398281 0.856587 10
5.70779 -20.1709 1.09862 0.176699 10
5.72867 -20.2447 1.84073 0.135963 10
5.9581 -21.0555 2.6868 0.663017 10
5.95809 -21.0555 3.4658 0.659773 10
5.70111 -20.1473 4.07001 0.185406 10
5.7219 -20.2208 4.85164 0.133142 10
5.72016 -20.2146 5.62917 0.132028 10
2.62826 -9.16585 -2.55496 0.0550586 4
3.04921 -10.6339 -2.55396 0.0541168 4
1.36161 -4.74848 -0.960208 0.660633 8
1.3616 -4.74848 -0.782393 0.67123 8
1.3616 -4.74847 -0.606535 0.645062 8
1.3616 -4.74846 -0.432179 0.617856 8
1.3616 -4.74846 -0.258885 0.589717 8
6.29561 -21.9554 -0.398677 0.855736 10
6.2956 -21.9554 0.398676 0.855738 10
5.70765 -19.905 1.08521 0.178882 10
5.72855 -19.9778 1.81827 0.137642 10
6.03755 -21.0554 2.68947 0.662359 10
6.03754 -21.0554 3.46924 0.659119 10
5.70106 -19.882 4.0204 0.187694 10
5.69937 -19.8761 4.77367 0.17479 10
5.72015 -19.9485 5.5606 0.133656 10
2.66017 -9.15636 -2.55488 0.0778023 4
3.08621 -10.6228 -2.55388 0.0645259 4
1.37956 -4.74847 -0.961174 0.659969 8
1.37956 -4.74847 -0.78318 0.6673 8
1.37955 -4.74846 -0.607145 0.637872 8
1.37955 -4.74845 -0.432613 0.613952 8
1.37955 -4.74844 -0.259145 0.589124 8
6.37862 -21.9553 -0.399078 0.854877 10
6.37861 -21.9553 0.399077 0.854878 10
5.70752 -19.6454 1.07214 0.181062 10
5.72844 -19.7174 1.79638 0.13932 10
6.11716 -21.0554 2.69217 0.661694 10
6.11715 -21.0554 3.47273 0.658457 10
5.701 -19.623 3.97204 0.18998 10
5.69933 -19.6172 4.71626 0.176918 10
5.72014 -19.6888 5.49374 0.135283 10
2.69204 -9.14676 -2.55481 0.0694255 4
3.12317 -10.6116 -2.55379 0.0624465 4
1.39755 -4.74846 -0.962154 0.665761 8
1.39755 -4.74845 -0.783978 0.663369 8
1.39754 -4.74845 -0.607763 0.633955 8
1.39754 -4.74844 -0.433054 0.606768 8
1.39754 -4.74843 -0.259409 0.581949 8
6.07138 -20.6288 -0.375348 0.165618 10
6.06969 -20.6231 0.375244 0.165664 10
5.70739 -19.3921 1.0594 0.183241 10
5.71581 -19.4207 1.77115 0.622253 10
6.19692 -21.0553 2.69492 0.661021 10
6.19691 -21.0553 3.47627 0.657786 10
5.70095 -19.3702 3.92487 0.192263 10
5.6993 -19.3646 4.66027 0.179043 10
5.71577 -19.4205 5.42442 0.60335 10
2.72387 -9.13706 -2.55474 0.0634423 4
3.16009 -10.6003 -2.55371 0.0744178 4
1.41557 -4.74845 -0.963147 0.668303 8
1.41557 -4.74844 -0.784787 0.656188 8
1.41557 -4.74844 -0.608391 0.630037 8
1.41557 -4.74843 -0.433501 0.606142 8
1.41557 -4.74842 -0.259677 0.57478 8
6.0712 -20.3655 -0.37094 0.167586 10
6.06954 -20.3599 0.370838 0.167632 10
5.70727 -19.1447 1.04696 0.185417 10
5.72822 -19.215 1.7542 0.14267 10
6.27685 -21.0553 2.6977 0.660339 10
6.27684 -21.0553 3.47986 0.657108 10
5.7009 -19.1233 3.87885 0.194544 10
5.69927 -19.1178 4.60565 0.193161 10
5.72011 -19.1877 5.36494 0.138531 10
2.75568 -9.12724 -2.55467 0.0700279 4
3.19697 -10.5889 -2.55363 0.0619301 4
1.43364 -4.74844 -0.964153 0.674056 8
1.43364 -4.74843 -0.785608 0.649013 8
1.43363 -4.74842 -0.609027 0.622857 8
1.43363 -4.74842 -0.433954 0.598963 8
1.43363 -4.74841 -0.259948 0.570899 8
6.07103 -20.1082 -0.366639 0.169552 10
6.06939 -20.1028 0.366539 0.169598 10
5.74897 -19.0415 1.04241 0.0336267 10
5.72812 -18.9725 1.73388 0.144342 10
6.35695 -21.0552 2.70052 0.659649 10
6.35694 -21.0552 3.4835 0.656422 10
5.70085 -18.8821 3.83395 0.196822 10
5.69924 -18.8768 4.55235 0.195422 10
5.7201 -18.9459 5.30287 0.140152 10
2.78744 -9.11731 -2.5546 0.0927746 4
3.23381 -10.5773 -2.55355 0.0640138 4
1.45174 -4.74843 -0.965174 0.666899 8
1.45174 -4.74842 -0.78644 0.645085 8
1.45174 -4.74841 -0.609672 0.61894 8
1.45173 -4.74841 -0.434414 0.59506 8
1.45173 -4.7484 -0.260224 0.56374 8
6.07087 -19.8569 -0.362441 0.171516 10
6.06924 -19.8516 0.362343 0.171562 10
5.81624 -19.0241 1.04256 0.0336218 10
5.72802 -18.7355 1.71404 0.146013 10
6.43722 -21.0552 2.70338 0.658952 10
6.43721 -21.0552 3.48718 0.655728 10
5.70081 -18.6465 3.79012 0.199098 10
5.69921 -18.6413 4.50032 0.197682 10
5.72009 -18.7096 5.24228 0.141772 10
2.81917 -9.10728 -2.55453 0.0784117 4
3.27061 -10.5656 -2.55346 0.0681795 4
1.46988 -4.74841 -0.966209 0.662967 8
1.46988 -4.74841 -0.787283 0.641156 8
1.46988 -4.7484 -0.610325 0.611769 8
1.46987 -4.7484 -0.434879 0.587891 8
1.46987 -4.74839 -0.260503 0.563136 8
6.07071 -19.6113 -0.358342 0.173477 10
6.0691 -19.6061 0.358247 0.173523 10
5.88346 -19.0064 1.04271 0.033617 10
5.72792 -18.5039 1.69467 0.147681 10
6.51765 -21.0551 2.70628 0.658246 10
6.51764 -21.0551 3.49092 0.655025 10
5.70076 -18.4162 3.74733 0.201372 10
5.69918 -18.4111 4.44952 0.199938 10
5.72008 -18.4786 5.18312 0.14339 10
2.85087 -9.09713 -2.55446 0.0903854 4
3.30736 -10.5538 -2.55338 0.0770297 4
1.48806 -4.7484 -0.967258 0.659033 8
1.48806 -4.7484 -0.788137 0.633992 8
1.48805 -4.74839 -0.610988 0.611106 8
1.48805 -4.74838 -0.435351 0.580728 8
1.48805 -4.74838 -0.260785 0.552714 8
6.11892 -19.5255 -0.357163 0.561117 10
6.11891 -19.5255 0.357162 0.561117 10
5.95062 -18.9885 1.04286 0.0336121 10
5.72782 -18.2775 1.67576 0.149348 10
6.59826 -21.0551 2.70921 0.657532 10
6.59825 -21.0551 3.49471 0.654315 10
5.75745 -18.372 3.74242 0.13196 10
5.69915 -18.186 4.39991 0.202193 10
5.72007 -18.2528 5.12535 0.145007 10
2.88252 -9.08687 -2.55439 0.0538736 4
3.34408 -10.5419 -2.5533 0.0676634 4
3.96951 -12.5135 -2.55183 0.0508007 4
1.50628 -4.74839 -0.789003 0.630065 8
1.50627 -4.74838 -0.611659 0.603941 8
1.50627 -4.74837 -0.43583 0.576832 8
1.50627 -4.74837 -0.261072 0.54884 8
6.10821 -19.2555 -0.352612 0.560501 10
6.1082 -19.2555 0.352611 0.560502 10
6.01773 -18.9703 1.04301 0.0336073 10
5.72772 -18.0561 1.65728 0.151014 10
6.67905 -21.055 2.71219 0.656811 10
6.67904 -21.055 3.49855 0.653597 10
5.82177 -18.3525 3.74256 0.131955 10
5.69913 -17.9659 4.35145 0.204445 10
5.72006 -18.0319 5.06891 0.146621 10
2.91415 -9.0765 -2.55432 0.058664 4
3.38075 -10.5298 -2.55322 0.064022 4
4.30993 -13.4239 -2.74053 0.0727758 1
1.52454 -4.74837 -0.789881 0.626137 8
1.52453 -4.74837 -0.612339 0.600027 8
1.52453 -4.74836 -0.436314 0.572936 8
1.52453 -4.74835 -0.261362 0.544967 8
6.09558 -18.9855 -0.348055 0.559878 10
6.09557 -18.9855 0.348054 0.559879 10
6.08479 -18.9519 1.04316 0.0336025 10
5.7051 -17.7693 1.63277 0.211102 10
5.70362 -17.7647 2.2909 0.210383 10
5.70213 -17.7601 2.95434 0.209408 10
5.70062 -17.7554 3.62481 0.208178 10
5.6991 -17.7506 4.30409 0.206694 10
5.69755 -17.7458 4.99404 0.204959 10
2.94573 -9.06602 -2.55425 0.0778217 4
3.41737 -10.5176 -2.55314 0.0655856 4
4.3566 -13.4082 -2.74042 0.0727786 1
1.54284 -4.74836 -0.79077 0.618985 8
1.54283 -4.74836 -0.613029 0.592873 8
1.54283 -4.74835 -0.436806 0.56904 8
1.54283 -4.74834 -0.261657 0.541095 8
6.16875 -18.9855 -0.348447 0.559248 10
6.16874 -18.9854 0.348446 0.559249 10
6.15179 -18.9333 1.04331 0.0335977 10
5.73018 -17.6357 1.62232 0.657751 10
5.73017 -17.6357 2.27682 0.655343 10
5.73016 -17.6356 2.93695 0.652137 10
5.73015 -17.6356 3.60443 0.648136 10
5.73014 -17.6356 4.28102 0.643345 10
5.73013 -17.6355 4.96861 0.63777 10
2.97728 -9.05544 -2.55418 0.0580686 4
3.45395 -10.5053 -2.55306 0.0624645 4
4.40321 -13.3924 -2.74032 0.0727814 1
1.56118 -4.74835 -0.791671 0.615061 8
1.56118 -4.74835 -0.613727 0.588962 8
1.56117 -4.74834 -0.437303 0.561896 8
1.56117 -4.74833 -0.261955 0.533967 8
6.24209 -18.9854 -0.348844 0.558612 10
6.24208 -18.9854 0.348843 0.558613 10
6.21873 -18.9144 1.04346 0.0335929 10
5.7983 -17.6356 1.62417 0.657003 10
5.79829 -17.6356 2.27941 0.654597 10
5.79828 -17.6356 2.9403 0.651395 10
5.79827 -17.6356 3.60853 0.647398 10
5.79826 -17.6355 4.2859 0.642613 10
5.79826 -17.6355 4.97427 0.637045 10
3.00878 -9.04474 -2.55411 0.072438 4
3.49049 -10.4928 -2.55297 0.0515349 4
4.44976 -13.3765 -2.74021 0.0727841 1
1.57956 -4.74834 -0.792583 0.60792 8
1.57956 -4.74833 -0.614434 0.585052 8
1.57956 -4.74833 -0.437807 0.554761 8
6.28561 -18.8953 1.04361 0.0335881 10
5.86658 -17.6356 1.62604 0.656246 10
5.86657 -17.6356 2.28204 0.653844 10
5.86656 -17.6355 2.94369 0.650645 10
5.86655 -17.6355 3.61269 0.646653 10
5.86654 -17.6355 4.29084 0.641873 10
5.86654 -17.6355 4.98001 0.636311 10
3.04025 -9.03393 -2.55404 0.0664533 4
3.52699 -10.4802 -2.55289 0.0504954 4
4.49626 -13.3604 -2.74011 0.0727869 1
1.59799 -4.74833 -0.793508 0.603999 8
1.59799 -4.74832 -0.615151 0.574685 8
1.59798 -4.74832 -0.438318 0.550874 8
9.5589 -28.4037 -1.57061 0.186876 10
9.55655 -28.3967 -0.522983 0.18715 10
9.55419 -28.3897 0.522854 0.187196 10
6.35244 -18.8759 1.04376 0.0335833 10
5.93502 -17.6355 1.62794 0.655482 10
5.93501 -17.6355 2.2847 0.653082 10
5.935 -17.6355 2.94712 0.649887 10
5.93499 -17.6355 3.6169 0.645899 10
5.93498 -17.6354 4.29584 0.641125 10
5.93497 -17.6354 4.98581 0.63557 10
3.07168 -9.02302 -2.55397 0.072442 4
3.56343 -10.4675 -2.55281 0.0702793 4
4.54269 -13.3441 -2.74001 0.0727896 1
1.61646 -4.74832 -0.794444 0.596869 8
1.61646 -4.74831 -0.615877 0.570783 8
1.61645 -4.7483 -0.438835 0.546988 8
9.61823 -28.2534 -1.56415 0.555983 10
9.61822 -28.2533 -0.520958 0.556662 10
9.6182 -28.2533 0.520956 0.556663 10
6.4192 -18.8563 1.04391 0.0335785 10
6.00361 -17.6355 1.62986 0.65471 10
6.0036 -17.6355 2.2874 0.652313 10
6.00359 -17.6355 2.9506 0.649121 10
6.00359 -17.6354 3.62117 0.645138 10
6.00358 -17.6354 4.30091 0.64037 10
6.00357 -17.6354 4.9917 0.634821 10
3.10308 -9.012 -2.5539 0.0748389 4
3.59983 -10.4547 -2.55273 0.0671579 4
4.58907 -13.3276 -2.7399 0.0727924 1
1.63497 -4.74831 -0.795392 0.592952 8
1.63497 -4.7483 -0.616612 0.566881 8
1.63497 -4.74829 -0.439359 0.539871 8
6.07086 -17.6311 -0.977248 0.288796 10
6.0694 -17.6268 -0.325406 0.289218 10
6.06794 -17.6226 0.325327 0.289288 10
6.06648 -17.6183 0.976541 0.289005 10
6.06501 -17.6141 1.62983 0.224846 10
6.06353 -17.6098 2.2868 0.224077 10
6.06205 -17.6055 2.9491 0.223035 10
6.06054 -17.6011 3.61844 0.221721 10
6.05902 -17.5967 4.2966 0.220137 10
6.05747 -17.5922 4.98542 0.218285 10
3.13443 -9.00086 -2.55383 0.0688536 4
3.63619 -10.4417 -2.55265 0.06716 4
4.63539 -13.311 -2.7398 0.0727951 1
1.65353 -4.7483 -0.796352 0.585835 8
1.65353 -4.74829 -0.617356 0.559764 8
1.65353 -4.74828 -0.439889 0.535991 8
6.07072 -17.4327 -0.967423 0.291729 10
6.06927 -17.4286 -0.322135 0.292155 10
6.06782 -17.4244 0.322058 0.292224 10
6.06638 -17.4203 0.96673 0.291938 10
6.06492 -17.4161 1.61346 0.227127 10
6.06346 -17.4119 2.26383 0.22635 10
6.06199 -17.4077 2.9195 0.225297 10
6.0605 -17.4034 3.58213 0.223969 10
6.05899 -17.3991 4.25348 0.222368 10
6.05746 -17.3947 4.93541 0.220497 10
3.16574 -8.98962 -2.55376 0.0880153 4
3.6725 -10.4286 -2.55257 0.0801781 4
4.68165 -13.2943 -2.7397 0.0727979 1
1.67213 -4.74828 -0.797324 0.581923 8
1.67213 -4.74828 -0.61811 0.559081 8
1.67213 -4.74827 -0.440426 0.532113 8
6.08368 -17.2756 -0.959872 0.838688 10
6.08367 -17.2755 -0.319697 0.839712 10
6.08366 -17.2755 0.319696 0.839713 10
6.08366 -17.2755 0.959868 0.838691 10
5.70441 -16.1986 1.5025 0.229405 10
5.7034 -16.1957 2.10828 0.649956 10
5.70339 -16.1957 2.71955 0.646776 10
5.70338 -16.1956 3.33761 0.642808 10
6.05897 -17.2054 4.21128 0.224597 10
6.05745 -17.2011 4.88645 0.222706 10
3.19702 -8.97827 -2.55369 0.0934066 4
3.70876 -10.4154 -2.55249 0.0598751 4
4.72785 -13.2773 -2.73959 0.0728006 1
5.79703 -16.28 -2.73709 0.0597401 1
1.69078 -4.74826 -0.618873 0.548764 8
1.69078 -4.74826 -0.44097 0.525015 8
6.15153 -17.2755 -0.961057 0.837654 10
6.15152 -17.2755 -0.320092 0.838677 10
6.15151 -17.2755 0.320091 0.838678 10
6.1515 -17.2754 0.961053 0.837657 10
5.76701 -16.1957 1.50409 0.65154 10
5.767 -16.1956 2.11088 0.649155 10
5.767 -16.1956 2.7229 0.645979 10
5.76699 -16.1956 3.34173 0.642015 10
6.05894 -17.0155 4.16995 0.226823 10
6.05744 -17.0113 4.83851 0.224913 10
3.22825 -8.96681 -2.55362 0.111971 4
3.74498 -10.4021 -2.55241 0.0718524 4
4.77399 -13.2603 -2.73949 0.0728033 1
5.85356 -16.2589 -2.73696 0.0597429 1
6.07314 -16.8688 -2.20137 0.298537 10
6.21956 -17.2755 -1.60638 0.834568 10
6.21955 -17.2755 -0.962257 0.836609 10
6.21954 -17.2754 -0.320491 0.837631 10
6.21953 -17.2754 0.320491 0.837632 10
6.21952 -17.2754 0.962253 0.836613 10
5.83078 -16.1956 1.50596 0.650728 10
5.83077 -16.1956 2.11352 0.648346 10
5.83076 -16.1956 2.7263 0.645173 10
5.83075 -16.1955 3.3459 0.641215 10
6.05892 -16.8293 4.12948 0.229046 10
6.05743 -16.8252 4.79156 0.227117 10
3.25944 -8.95525 -2.55355 0.0700587 4
3.78115 -10.3886 -2.55233 0.0728961 4
4.82007 -13.243 -2.73939 0.0728061 1
5.91 -16.2376 -2.73684 0.0597456 1
6.07298 -16.6854 -2.18019 0.301437 10
6.28775 -17.2754 -1.6084 0.833517 10
6.28774 -17.2754 -0.963471 0.835555 10
6.28773 -17.2754 -0.320896 0.836575 10
6.28772 -17.2754 0.320895 0.836577 10
6.28771 -17.2754 0.963467 0.835559 10
5.89471 -16.1956 1.50786 0.649908 10
5.8947 -16.1956 2.11619 0.647528 10
5.89469 -16.1955 2.72974 0.64436 10
5.89468 -16.1955 3.35012 0.640407 10
5.69882 -15.6574 3.84678 0.231266 10
6.05742 -16.6426 4.74557 0.229318 10
3.29059 -8.94357 -2.55348 0.0640725 4
3.81727 -10.375 -2.55225 0.0702949 4
4.86608 -13.2256 -2.73929 0.0728088 1
5.96637 -16.2161 -2.73671 0.0597484 1
6.07282 -16.5054 -2.15943 0.304335 10
6.35611 -17.2754 -1.61046 0.832455 10
6.3561 -17.2754 -0.9647 0.83449 10
6.35609 -17.2754 -0.321305 0.835509 10
6.35608 -17.2753 0.321304 0.835511 10
6.35607 -17.2753 0.964696 0.834494 10
5.9588 -16.1955 1.50979 0.64908 10
5.95879 -16.1955 2.11889 0.646703 10
5.95878 -16.1955 2.73323 0.643539 10
5.95877 -16.1955 3.3544 0.639591 10
5.6988 -15.4889 3.81025 0.233484 10
6.05741 -16.4636 4.70051 0.231516 10
3.3217 -8.93179 -2.55341 0.0407201 4
3.85334 -10.3613 -2.55217 0.0765457 4
4.91203 -13.2081 -2.73918 0.0728115 1
6.02267 -16.1945 -2.73658 0.0597511 1
6.07266 -16.3289 -2.1391 0.307228 10
6.42465 -17.2754 -1.61253 0.831382 10
6.42464 -17.2753 -0.965944 0.833416 10
6.42463 -17.2753 -0.321719 0.834433 10
6.42462 -17.2753 0.321719 0.834435 10
6.42461 -17.2753 0.96594 0.833419 10
6.02305 -16.1955 1.51173 0.648244 10
6.02304 -16.1955 2.12162 0.64587 10
6.02303 -16.1954 2.73675 0.64271 10
6.02302 -16.1954 3.35872 0.638767 10
5.69878 -15.3236 3.77445 0.235698 10
6.0574 -16.2879 4.65636 0.233711 10
3.35277 -8.9199 -2.55334 0.0610818 4
3.88936 -10.3475 -2.55209 0.0744652 4
4.95792 -13.1903 -2.73908 0.0728142 1
6.07389 -16.1593 -2.73421 0.308529 10
6.07251 -16.1557 -2.11917 0.310117 10
10.2438 -27.2532 -2.54722 0.0783157 10
10.4842 -27.8928 -1.56166 0.832331 10
10.4842 -27.8928 -0.520128 0.833347 10
10.4842 -27.8928 0.520127 0.833348 10
7.01729 -18.6692 1.04524 0.0335356 10
6.07619 -16.1655 1.5109 0.413288 10
6.07619 -16.1654 2.12045 0.411774 10
6.07618 -16.1654 2.73524 0.40976 10
6.07617 -16.1654 3.35687 0.407246 10
5.70305 -15.1727 3.74218 0.155582 10
6.05739 -16.1154 4.61308 0.235904 10
3.38379 -8.9079 -2.55327 0.0562926 4
3.92533 -10.3335 -2.55201 0.0442639 4
5.00375 -13.1725 -2.73898 0.0728169 1
6.07373 -15.9892 -2.709 0.311401 10
6.07236 -15.9856 -2.09963 0.313003 10
10.338 -27.2151 -2.54701 0.0783221 10
10.5955 -27.8928 -1.56371 0.831236 10
10.5955 -27.8927 -0.520813 0.832251 10
10.5954 -27.8927 0.520812 0.832252 10
7.08341 -18.6472 1.04539 0.0335309 10
6.13189 -16.1423 1.51073 0.156579 10
6.13053 -16.1387 2.11974 0.15604 10
6.12915 -16.1351 2.73372 0.155311 10
6.12775 -16.1314 3.35424 0.154393 10
5.75616 -15.1532 3.7423 0.155577 10
6.05738 -15.9462 4.57065 0.238094 10
3.41477 -8.89579 -2.5532 0.0928254 4
3.96126 -10.3194 -2.55192 0.0614506 4
5.04951 -13.1544 -2.73888 0.0728196 1
6.07357 -15.8222 -2.68428 0.314269 10
6.07221 -15.8187 -2.08047 0.315885 10
10.4321 -27.1766 -2.5468 0.0783286 10
7.14946 -18.625 1.04554 0.0335262 10
6.13047 -15.9704 2.10043 0.157475 10
5.80921 -15.1335 3.74241 0.155572 10
6.05737 -15.78 4.52905 0.240281 10
3.44571 -8.88358 -2.55313 0.0790535 4
3.99713 -10.3052 -2.55185 0.0322886 4
5.09521 -13.1362 -2.73878 0.0728223 1
6.07341 -15.6582 -2.66004 0.317133 10
6.07207 -15.6547 -2.06169 0.318763 10
10.526 -27.1378 -2.54659 0.078335 10
7.21545 -18.6025 1.04569 0.0335215 10
6.1304 -15.8051 2.08149 0.158907 10
5.86218 -15.1136 3.74253 0.155567 10
6.05736 -15.6168 4.48826 0.242465 10
3.47661 -8.87126 -2.55306 0.0850447 4
4.33134 -11.0523 -2.74056 0.0857966 1
5.14084 -13.1179 -2.73867 0.0728251 1
6.07326 -15.4971 -2.63626 0.319993 10
6.07193 -15.4937 -2.04326 0.321637 10
10.6198 -27.0986 -2.54638 0.0783414 10
7.28136 -18.5799 1.04583 0.0335167 10
6.13102 -15.6445 2.06315 0.0536255 10
5.91509 -15.0935 3.74265 0.155562 10
6.05735 -15.4565 4.44825 0.244645 10
3.50746 -8.85883 -2.553 0.0850469 4
4.36975 -11.0367 -2.74048 0.0857993 1
5.18641 -13.0994 -2.73857 0.0728277 1
6.07311 -15.3389 -2.61294 0.322849 10
6.07179 -15.3356 -2.02519 0.324508 10
10.7135 -27.0592 -2.54617 0.0783478 10
7.34721 -18.5569 1.04598 0.033512 10
5.96793 -15.0733 3.74277 0.155557 10
6.05734 -15.2991 4.409 0.246823 10
3.53826 -8.84629 -2.55293 0.0760652 4
4.40811 -11.0211 -2.74039 0.085802 1
5.23191 -13.0807 -2.73847 0.0728304 1
6.07296 -15.1835 -2.59005 0.325701 10
6.07165 -15.1802 -2.00746 0.327374 10
10.807 -27.0194 -2.54597 0.0783542 10
7.41298 -18.5338 1.04613 0.0335073 10
6.02069 -15.0528 3.74288 0.155552 10
6.05733 -15.1444 4.37048 0.248998 10
3.56903 -8.83365 -2.55286 0.0844526 4
4.44642 -11.0053 -2.74031 0.0858047 1
5.27734 -13.0619 -2.73837 0.0728331 1
6.07282 -15.0308 -2.5676 0.32855 10
6.07152 -15.0275 -1.99006 0.330237 10
6.07024 -15.0244 -1.41769 0.218978 10
6.06896 -15.0212 -0.849053 0.219559 10
6.06769 -15.0181 -0.282728 0.219873 10
6.06642 -15.0149 0.282669 0.219919 10
6.06515 -15.0118 0.84852 0.219697 10
6.05867 -14.9957 3.73393 0.161708 10
6.05732 -14.9924 4.33269 0.25117 10
3.59974 -8.8209 -2.55279 0.0640898 4
4.48467 -10.9894 -2.74022 0.0858073 1
5.32271 -13.0429 -2.73827 0.0728358 1
6.07267 -14.8806 -2.54556 0.331395 10
6.07139 -14.8775 -1.97298 0.333095 10
6.09509 -14.9356 -1.41131 0.542476 10
6.09508 -14.9355 -0.845408 0.543802 10
6.09507 -14.9355 -0.281573 0.544466 10
6.09506 -14.9355 0.281573 0.544467 10
6.09505 -14.9355 0.845405 0.543805 10
5.70344 -13.9759 1.32063 0.260998 10
5.70225 -13.9729 1.85302 0.260097 10
5.70104 -13.97 2.38978 0.258879 10
5.69982 -13.967 2.93227 0.257345 10
5.69859 -13.964 3.48195 0.255498 10
6.05731 -14.843 4.2956 0.253339 10
3.63041 -8.80805 -2.55272 0.0748733 4
4.52286 -10.9733 -2.74014 0.08581 1
5.368 -13.0238 -2.73817 0.0728385 1
6.07253 -14.7331 -2.52393 0.334235 10
6.07126 -14.73 -1.95622 0.335949 10
6.07 -14.7269 -1.39359 0.222765 10
6.06874 -14.7239 -0.834621 0.223355 10
6.06749 -14.7208 -0.277924 0.223674 10
6.06624 -14.7178 0.277866 0.22372 10
6.06499 -14.7148 0.834106 0.223493 10
5.73563 -13.9157 1.31682 0.639451 10
5.73562 -13.9157 1.84807 0.63711 10
5.73561 -13.9156 2.3839 0.633993 10
5.7356 -13.9156 2.92568 0.630103 10
5.73559 -13.9156 3.47486 0.625446 10
6.0573 -14.6961 4.25919 0.255505 10
3.66104 -8.79508 -2.55265 0.0587022 4
4.561 -10.9571 -2.74005 0.0858127 1
5.41323 -13.0045 -2.73807 0.0728412 1
6.0724 -14.588 -2.50269 0.337071 10
6.07113 -14.585 -1.93976 0.338799 10
6.10468 -14.6656 -1.38979 0.54092 10
6.10467 -14.6655 -0.832517 0.542243 10
6.10466 -14.6655 -0.27728 0.542905 10
6.10465 -14.6655 0.277279 0.542906 10
6.10464 -14.6655 0.832513 0.542245 10
5.79252 -13.9156 1.31873 0.638529 10
5.79251 -13.9156 1.85074 0.636191 10
5.79251 -13.9156 2.38734 0.633079 10
5.7925 -13.9156 2.9299 0.629194 10
5.79249 -13.9156 3.47988 0.624544 10
6.05729 -14.5517 4.22344 0.257668 10
3.69162 -8.78202 -2.55259 0.064694 4
4.59907 -10.9408 -2.73997 0.0858153 1
5.4584 -12.985 -2.73797 0.0728439 1
6.07226 -14.4453 -2.48184 0.339903 10
6.07101 -14.4424 -1.9236 0.341645 10
6.06977 -14.4394 -1.37036 0.226541 10
6.06853 -14.4365 -0.820711 0.227141 10
6.0673 -14.4335 -0.273293 0.227464 10
6.06608 -14.4306 0.273237 0.22751 10
6.06485 -14.4277 0.820213 0.227279 10
5.84958 -13.9156 1.32065 0.637599 10
5.84957 -13.9156 1.85344 0.635265 10
5.84957 -13.9156 2.39082 0.632156 10
5.84956 -13.9156 2.93418 0.628278 10
5.84955 -13.9155 3.48496 0.623634 10
6.05728 -14.4097 4.18833 0.259827 10
3.72215 -8.76885 -2.55252 0.0820677 4
4.63709 -10.9243 -2.73988 0.085818 1
5.50349 -12.9654 -2.73787 0.0728465 1
6.07213 -14.305 -2.46136 0.342731 10
6.07088 -14.3021 -1.90773 0.344487 10
6.11055 -14.3955 -1.36821 0.539337 10
6.11054 -14.3955 -0.819591 0.540656 10
6.11053 -14.3955 -0.272975 0.541317 10
6.11052 -14.3955 0.272974 0.541317 10
6.11051 -14.3955 0.819588 0.540659 10
5.90681 -13.9156 1.32259 0.636661 10
5.9068 -13.9156 1.85617 0.63433 10
5.90679 -13.9155 2.39434 0.631227 10
5.90678 -13.9155 2.9385 0.627354 10
5.90677 -13.9155 3.49009 0.622717 10
6.05727 -14.27 4.15386 0.261984 10
3.75264 -8.75557 -2.55245 0.0191696 4
4.67505 -10.9077 -2.7398 0.0858206 1
5.54851 -12.9456 -2.73777 0.0728492 1
6.072 -14.167 -2.44125 0.345555 10
6.07076 -14.1642 -1.89215 0.347325 10
6.06954 -14.1613 -1.34796 0.230306 10
6.06833 -14.1585 -0.807296 0.230915 10
6.06712 -14.1557 -0.268827 0.231243 10
6.06591 -14.1528 0.268773 0.231289 10
6.0647 -14.15 0.806814 0.231053 10
5.96421 -13.9155 1.32456 0.635716 10
5.9642 -13.9155 1.85893 0.633388 10
5.96419 -13.9155 2.3979 0.630289 10
5.96418 -13.9155 2.94287 0.626422 10
5.96417 -13.9155 3.49528 0.621792 10
6.05726 -14.1327 4.12 0.264137 10
3.78308 -8.74218 -2.55238 0.0844683 4
4.71296 -10.891 -2.73971 0.0858233 1
5.59346 -12.9257 -2.73767 0.0728519 1
6.07187 -14.0313 -2.42149 0.348374 10
6.07065 -14.0284 -1.87684 0.350158 10
6.11267 -14.1255 -1.34657 0.537729 10
6.11266 -14.1255 -0.806629 0.539044 10
6.11265 -14.1255 -0.268658 0.539702 10
6.11264 -14.1255 0.268657 0.539703 10
6.11263 -14.1255 0.806626 0.539046 10
6.02177 -13.9155 1.32655 0.634762 10
6.02177 -13.9155 1.86172 0.632438 10
6.02176 -13.9155 2.40151 0.629344 10
6.02175 -13.9154 2.94729 0.625483 10
6.02174 -13.9154 3.50053 0.62086 10
6.05725 -13.9975 4.08673 0.266287 10
3.81347 -8.72869 -2.55231 0.0605073 4
4.7508 -10.8741 -2.73963 0.0858259 1
5.63834 -12.9056 -2.73757 0.0728545 1
6.07174 -13.8977 -2.40208 0.35119 10
6.07053 -13.8949 -1.86179 0.352988 10
6.06933 -13.8921 -1.32634 0.23406 10
6.06813 -13.8894 -0.79435 0.234679 10
6.06694 -13.8867 -0.264517 0.235011 10
6.06576 -13.884 0.264465 0.235057 10
6.06457 -13.8812 0.793884 0.234817 10
6.06337 -13.8785 1.32503 0.276566 10
6.06217 -13.8758 1.85923 0.275608 10
6.06096 -13.873 2.39781 0.274313 10
6.05974 -13.8702 2.94217 0.272685 10
6.0585 -13.8674 3.49374 0.270724 10
6.05724 -13.8645 4.05405 0.268434 10
3.84381 -8.7151 -2.55225 0.0832746 4
4.78858 -10.8572 -2.73955 0.0858285 1
5.68315 -12.8854 -2.73747 0.0728572 1
6.07162 -13.7662 -2.383 0.354001 10
6.07041 -13.7635 -1.84701 0.355812 10
6.11102 -13.8555 -1.32487 0.536094 10
6.11102 -13.8555 -0.793628 0.537405 10
6.11101 -13.8555 -0.264327 0.538061 10
6.111 -13.8555 0.264327 0.538062 10
6.11099 -13.8555 0.793625 0.537407 10
6.06331 -13.7474 1.31453 0.278777 10
6.06212 -13.7447 1.84449 0.27781 10
6.06092 -13.742 2.37881 0.276505 10
6.05971 -13.7392 2.91885 0.274863 10
6.05848 -13.7364 3.46606 0.272887 10
6.05723 -13.7336 4.02193 0.270577 10
3.87411 -8.7014 -2.55218 0.0497264 4
4.8263 -10.8401 -2.73946 0.0858312 1
5.72788 -12.865 -2.73737 0.0728598 1
6.07149 -13.6368 -2.36426 0.356807 10
6.0703 -13.6341 -1.83249 0.358633 10
6.06912 -13.6315 -1.30546 0.237803 10
6.06794 -13.6288 -0.781851 0.23843 10
6.06677 -13.6262 -0.260355 0.238767 10
6.0656 -13.6236 0.260305 0.238813 10
6.06443 -13.6209 0.781399 0.238568 10
6.06326 -13.6183 1.3042 0.280984 10
6.06208 -13.6157 1.83 0.280009 10
6.06089 -13.613 2.36013 0.278694 10
6.05968 -13.6103 2.89594 0.277038 10
6.05846 -13.6075 3.43885 0.275045 10
6.05723 -13.6048 3.99037 0.272718 10
3.90436 -8.68759 -2.55211 0.055719 4
4.86396 -10.8228 -2.73938 0.0858338 1
5.77254 -12.8445 -2.73727 0.0728625 1
6.07137 -13.5094 -2.34583 0.35961 10
6.07019 -13.5068 -1.81821 0.361449 10
6.10559 -13.5856 -1.3031 0.534433 10
6.10558 -13.5855 -0.780585 0.53574 10
6.10557 -13.5855 -0.259983 0.536394 10
6.10556 -13.5855 0.259983 0.536395 10
6.10555 -13.5855 0.780582 0.535742 10
6.0632 -13.4912 1.29405 0.283188 10
6.06203 -13.4886 1.81576 0.282205 10
6.06085 -13.486 2.34177 0.280879 10
6.05965 -13.4833 2.87341 0.27921 10
6.05844 -13.4807 3.41211 0.277201 10
6.05722 -13.4779 3.95934 0.274855 10
3.93456 -8.67368 -2.55205 0.0718974 4
4.90156 -10.8054 -2.7393 0.0858364 1
5.81713 -12.8238 -2.73717 0.0728651 1
6.07126 -13.384 -2.32772 0.362408 10
6.07008 -13.3814 -1.80417 0.364261 10
6.06892 -13.3789 -1.2853 0.241534 10
6.06776 -13.3763 -0.769776 0.242171 10
6.06661 -13.3738 -0.256335 0.242512 10
6.06546 -13.3712 0.256286 0.242558 10
6.0643 -13.3687 0.769338 0.242309 10
6.06314 -13.3661 1.28407 0.285388 10
6.06198 -13.3636 1.80177 0.284398 10
6.06081 -13.361 2.32372 0.28306 10
6.05963 -13.3584 2.85127 0.281378 10
6.05843 -13.3557 3.38582 0.279353 10
6.05721 -13.353 3.92885 0.276988 10
3.9647 -8.65967 -2.55198 0.08568 4
4.9391 -10.7879 -2.73921 0.085839 1
5.86165 -12.803 -2.73707 0.0728677 1
6.07114 -13.2605 -2.30992 0.365201 10
6.06997 -13.258 -1.79038 0.367068 10
6.09634 -13.3156 -1.28125 0.532746 10
6.09633 -13.3155 -0.767499 0.534049 10
6.09632 -13.3155 -0.255625 0.534701 10
6.09631 -13.3155 0.255624 0.534702 10
6.0963 -13.3155 0.767496 0.534051 10
6.06309 -13.2429 1.27426 0.287585 10
6.06194 -13.2404 1.78801 0.286586 10
6.06077 -13.2379 2.30597 0.285239 10
6.0596 -13.2353 2.8295 0.283543 10
6.05841 -13.2327 3.35998 0.281502 10
6.0572 -13.2301 3.89886 0.279118 10
3.9948 -8.64555 -2.55191 0.030558 4
4.97657 -10.7703 -2.73913 0.0858416 1
5.90609 -12.782 -2.73697 0.0728704 1
6.07102 -13.1389 -2.29241 0.367991 10
6.06987 -13.1364 -1.77681 0.369871 10
6.06872 -13.1339 -1.2658 0.3713 10
6.06758 -13.1314 -0.758104 0.372278 10
6.06645 -13.129 -0.252449 0.372801 10
6.06531 -13.1265 0.252402 0.372871 10
6.06418 -13.1241 0.757679 0.372487 10
6.06304 -13.1216 1.26462 0.289779 10
6.06189 -13.1191 1.77447 0.288772 10
6.06074 -13.1166 2.28852 0.287413 10
6.05957 -13.1141 2.80809 0.285704 10
6.05839 -13.1116 3.33456 0.283648 10
6.05719 -13.109 3.86938 0.281245 10
4.32264 -9.26994 -2.74065 0.0987109 1
5.01399 -10.7525 -2.73904 0.0858442 1
5.95046 -12.7608 -2.73687 0.072873 1
6.07091 -13.0191 -2.27519 0.370775 10
6.06976 -13.0167 -1.76347 0.372669 10
6.06862 -13.0142 -1.2563 0.374109 10
6.06749 -13.0118 -0.752414 0.375093 10
6.06637 -13.0094 -0.250554 0.37562 10
6.06524 -13.007 0.250508 0.37569 10
6.06412 -13.0045 0.751995 0.375302 10
6.06298 -13.0021 1.25513 0.291969 10
6.06185 -12.9997 1.76117 0.290954 10
6.0607 -12.9972 2.27137 0.289584 10
6.05954 -12.9947 2.78704 0.287862 10
6.05837 -12.9922 3.30957 0.285789 10
6.05718 -12.9897 3.84038 0.283368 10
4.35486 -9.25455 -2.74058 0.0987135 1
5.05134 -10.7346 -2.73896 0.0858468 1
5.99475 -12.7395 -2.73677 0.0728756 1
6.0708 -12.9011 -2.25826 0.373555 10
6.06966 -12.8987 -1.75035 0.375462 10
6.06853 -12.8963 -1.24696 0.376913 10
6.06741 -12.8939 -0.746818 0.377904 10
6.06629 -12.8915 -0.248691 0.378435 10
6.06517 -12.8892 0.248645 0.378504 10
6.06406 -12.8868 0.746405 0.378113 10
6.06293 -12.8844 1.2458 0.294155 10
6.0618 -12.882 1.74808 0.293132 10
6.06067 -12.8796 2.25449 0.291752 10
6.05952 -12.8771 2.76634 0.290017 10
6.05835 -12.8747 3.28499 0.287928 10
6.05717 -12.8721 3.81187 0.285488 10
4.38702 -9.23905 -2.74051 0.0987161 1
5.08862 -10.7166 -2.73888 0.0858494 1
6.03896 -12.718 -2.73668 0.0728782 1
6.07069 -12.7849 -2.24161 0.37633 10
6.06956 -12.7825 -1.73744 0.378252 10
6.06844 -12.7801 -1.23776 0.379712 10
6.06732 -12.7778 -0.741313 0.38071 10
6.06621 -12.7754 -0.246858 0.381244 10
6.0651 -12.7731 0.246813 0.381314 10
6.064 -12.7708 0.740906 0.380919 10
6.06288 -12.7684 1.23663 0.296338 10
6.06176 -12.766 1.73521 0.295307 10
6.06063 -12.7637 2.23789 0.293916 10
6.05949 -12.7613 2.74598 0.292167 10
6.05834 -12.7588 3.26081 0.290063 10
6.05716 -12.7564 3.78382 0.287605 10
4.41913 -9.22344 -2.74043 0.0987186 1
5.12584 -10.6985 -2.7388 0.085852 1
6.07172 -12.6727 -2.73146 0.376704 10
6.07058 -12.6703 -2.22522 0.379101 10
6.06946 -12.6679 -1.72474 0.381036 10
6.06835 -12.6656 -1.22872 0.382507 10
6.06724 -12.6633 -0.735897 0.383512 10
6.06614 -12.661 -0.245055 0.384049 10
6.06504 -12.6587 0.245011 0.384119 10
6.06394 -12.6564 0.735497 0.383721 10
6.06283 -12.6541 1.2276 0.298517 10
6.06172 -12.6518 1.72254 0.297478 10
6.0606 -12.6494 2.22156 0.296077 10
6.05947 -12.6471 2.72594 0.294315 10
6.05832 -12.6447 3.23703 0.292194 10
6.05715 -12.6423 3.75622 0.289718 10
4.45118 -9.20772 -2.74036 0.0987212 1
5.163 -10.6802 -2.73871 0.0858546 1
6.08895 -12.5956 -2.71941 0.786968 10
6.08894 -12.5956 -2.21582 0.791829 10
6.08894 -12.5956 -1.71777 0.795725 10
6.08893 -12.5956 -1.22398 0.798651 10
6.08892 -12.5955 -0.733189 0.800604 10
6.08891 -12.5955 -0.244198 0.801582 10
6.0889 -12.5955 0.244197 0.801583 10
6.08889 -12.5955 0.733186 0.800607 10
6.06278 -12.5415 1.21872 0.300692 10
6.06168 -12.5392 1.71008 0.299646 10
6.06056 -12.5369 2.20549 0.298234 10
6.05944 -12.5346 2.70623 0.296459 10
6.0583 -12.5322 3.21362 0.294322 10
6.05714 -12.5298 3.72907 0.291827 10
4.48318 -9.19188 -2.74029 0.0987238 1
5.2001 -10.6618 -2.73863 0.0858572 1
6.14327 -12.5956 -2.72402 0.785638 10
6.14326 -12.5956 -2.21957 0.79049 10
6.14325 -12.5955 -1.72068 0.794379 10
6.14324 -12.5955 -1.22605 0.7973 10
6.14324 -12.5955 -0.734431 0.79925 10
6.14323 -12.5955 -0.244611 0.800226 10
6.14322 -12.5955 0.244611 0.800228 10
6.14321 -12.5954 0.734428 0.799254 10
6.06273 -12.4304 1.20998 0.302864 10
6.06163 -12.4282 1.69782 0.301809 10
6.06053 -12.4259 2.18968 0.300387 10
6.05941 -12.4236 2.68684 0.298599 10
6.05828 -12.4213 3.1906 0.296446 10
6.05713 -12.419 3.70235 0.293933 10
4.51512 -9.17594 -2.74022 0.0987263 1
5.23712 -10.6432 -2.73855 0.0858598 1
6.19778 -12.5955 -2.72867 0.784297 10
6.19777 -12.5955 -2.22337 0.789141 10
6.19776 -12.5955 -1.72362 0.793024 10
6.19775 -12.5955 -1.22814 0.79594 10
6.19774 -12.5955 -0.735686 0.797887 10
6.19773 -12.5955 -0.245029 0.798861 10
6.19772 -12.5954 0.245029 0.798862 10
6.19771 -12.5954 0.735683 0.79789 10
6.06268 -12.321 1.20138 0.305032 10
6.06159 -12.3188 1.68575 0.30397 10
6.0605 -12.3166 2.17412 0.302537 10
6.05939 -12.3143 2.66775 0.300735 10
6.05827 -12.312 3.16793 0.298567 10
6.05713 -12.3097 3.67606 0.296035 10
4.54701 -9.15989 -2.74015 0.0987289 1
5.27408 -10.6246 -2.73847 0.0858624 1
6.25247 -12.5955 -2.73338 0.782948 10
6.25246 -12.5955 -2.2272 0.787783 10
6.25245 -12.5955 -1.72659 0.791659 10
6.25244 -12.5955 -1.23026 0.79457 10
6.25243 -12.5954 -0.736955 0.796513 10
6.25242 -12.5954 -0.245452 0.797486 10
6.25241 -12.5954 0.245451 0.797487 10
6.2524 -12.5954 0.736951 0.796517 10
6.07374 -12.2355 1.1951 0.619541 10
6.07373 -12.2355 1.67724 0.617273 10
6.07372 -12.2354 2.16353 0.614253 10
6.07372 -12.2354 2.65523 0.610484 10
6.07371 -12.2354 3.15365 0.605972 10
6.0737 -12.2354 3.66017 0.600721 10
4.57884 -9.14372 -2.74008 0.0987314 1
5.31098 -10.6058 -2.73838 0.0858649 1
6.30264 -12.5861 -2.73609 0.0728939 1
6.30734 -12.5955 -2.23107 0.786416 10
6.30733 -12.5954 -1.7296 0.790285 10
6.30732 -12.5954 -1.2324 0.793191 10
6.30731 -12.5954 -0.738236 0.795131 10
6.3073 -12.5954 -0.245879 0.796102 10
6.30729 -12.5954 0.245878 0.796103 10
6.30728 -12.5953 0.738233 0.795134 10
6.12705 -12.2354 1.19718 0.618465 10
6.12704 -12.2354 1.68016 0.616201 10
6.12703 -12.2354 2.1673 0.613186 10
6.12702 -12.2354 2.65985 0.609424 10
6.12702 -12.2354 3.15914 0.60492 10
6.12701 -12.2354 3.66654 0.599678 10
4.61061 -9.12745 -2.74001 0.098734 1
5.34781 -10.5869 -2.7383 0.0858675 1
6.34631 -12.5636 -2.73599 0.0728965 1
6.36241 -12.5954 -2.23499 0.785038 10
6.3624 -12.5954 -1.73263 0.7889 10
6.36239 -12.5954 -1.23456 0.791802 10
6.36238 -12.5954 -0.739531 0.793738 10
6.36237 -12.5953 -0.24631 0.794707 10
6.36236 -12.5953 0.246309 0.794709 10
6.36235 -12.5953 0.739528 0.793742 10
6.18055 -12.2354 1.19928 0.617382 10
6.18054 -12.2354 1.68311 0.615122 10
6.18053 -12.2354 2.1711 0.612112 10
6.18052 -12.2354 2.66452 0.608357 10
6.18051 -12.2353 3.16468 0.60386 10
6.1805 -12.2353 3.67297 0.598628 10
4.64232 -9.11107 -2.73994 0.0987365 1
5.38457 -10.5678 -2.73822 0.0858701 1
6.38989 -12.5409 -2.73589 0.072899 1
6.41767 -12.5954 -2.23894 0.783651 10
6.41766 -12.5954 -1.7357 0.787507 10
6.41765 -12.5954 -1.23675 0.790403 10
6.41764 -12.5953 -0.74084 0.792336 10
6.41763 -12.5953 -0.246746 0.793304 10
6.41762 -12.5953 0.246745 0.793305 10
6.41761 -12.5953 0.740837 0.792339 10
6.23423 -12.2354 1.2014 0.616292 10
6.23422 -12.2354 1.68608 0.614035 10
6.23421 -12.2353 2.17494 0.611031 10
6.2342 -12.2353 2.66923 0.607282 10
6.23419 -12.2353 3.17028 0.602794 10
6.23418 -12.2353 3.67947 0.59757 10
4.67397 -9.09457 -2.73987 0.098739 1
5.42126 -10.5486 -2.73814 0.0858726 1
6.4334 -12.5181 -2.7358 0.0729016 1
6.47313 -12.5954 -2.24294 0.782255 10
6.47312 -12.5953 -1.73879 0.786104 10
13.2731 -25.8267 -2.54048 0.0785234 10
14.8996 -28.9915 -1.70829 0.405753 10
14.897 -28.9865 -0.568869 0.406318 10
14.8945 -28.9815 0.568771 0.406388 10
9.15816 -17.8199 1.05001 0.0460495 10
6.47306 -12.5952 1.23895 0.615193 10
6.47305 -12.5952 1.73878 0.612941 10
6.38627 -12.4263 3.74361 0.178937 10
4.70557 -9.07797 -2.7398 0.0987416 1
5.45789 -10.5293 -2.73806 0.0858752 1
6.47683 -12.4951 -2.7357 0.0729042 1
6.52879 -12.5953 -2.24698 0.780849 10
6.52878 -12.5953 -1.74193 0.784691 10
13.3622 -25.7782 -2.54028 0.0785295 10
14.7191 -28.3961 -1.67622 0.408512 10
14.7166 -28.3913 -0.558192 0.40908 10
14.7141 -28.3864 0.558097 0.40915 10
9.22154 -17.7902 1.05015 0.0460433 10
6.52873 -12.5952 1.24118 0.614088 10
6.52871 -12.5952 1.74191 0.611839 10
6.42977 -12.4043 3.74371 0.178932 10
4.73711 -9.06126 -2.73973 0.0987441 1
5.49445 -10.5099 -2.73798 0.0858777 1
6.52018 -12.472 -2.73561 0.0729067 1
6.58465 -12.5953 -2.25106 0.779433 10
6.58464 -12.5953 -1.74509 0.783268 10
13.451 -25.7294 -2.54009 0.0785356 10
14.719 -28.1548 -1.665 0.411266 10
14.7165 -28.15 -0.554456 0.411837 10
14.714 -28.1453 0.554361 0.411907 10
9.28483 -17.7603 1.05029 0.0460371 10
6.58459 -12.5952 1.24343 0.612974 10
6.58458 -12.5951 1.74507 0.61073 10
6.4732 -12.3821 3.7438 0.178928 10
4.76859 -9.04443 -2.73966 0.0987466 1
5.53094 -10.4904 -2.7379 0.0858803 1
6.56345 -12.4487 -2.73551 0.0729093 1
6.64072 -12.5953 -2.25518 0.778009 10
6.64071 -12.5952 -1.74829 0.781836 10
13.5397 -25.6803 -2.53989 0.0785417 10
14.7188 -27.9167 -1.65395 0.414014 10
14.7163 -27.912 -0.550775 0.414589 10
14.7138 -27.9073 0.550682 0.414659 10
9.34802 -17.7301 1.05044 0.046031 10
6.64065 -12.5951 1.24571 0.611854 10
6.64064 -12.5951 1.74827 0.609614 10
6.51655 -12.3597 3.7439 0.178923 10
4.80001 -9.0275 -2.73959 0.0987491 1
5.56736 -10.4707 -2.73781 0.0858828 1
6.60663 -12.4253 -2.73541 0.0729119 1
6.69699 -12.5952 -2.25935 0.776574 10
6.69698 -12.5952 -1.75151 0.780395 10
13.6282 -25.6309 -2.53969 0.0785478 10
14.8295 -27.8901 -1.65543 0.78518 10
14.8294 -27.8901 -0.551362 0.786139 10
14.8294 -27.8901 0.551361 0.78614 10
9.41111 -17.6997 1.05058 0.0460248 10
6.69693 -12.5951 1.24801 0.610726 10
6.69691 -12.5951 1.7515 0.60849 10
6.55982 -12.3372 3.74399 0.178919 10
4.83137 -9.01046 -2.73952 0.0987516 1
5.60371 -10.4509 -2.73773 0.0858854 1
6.64973 -12.4017 -2.73532 0.0729144 1
6.75348 -12.5952 -2.26356 0.77513 10
6.75347 -12.5952 -1.75478 0.778944 10
13.7165 -25.5812 -2.5395 0.0785539 10
14.8987 -27.786 -1.65233 0.419496 10
14.8962 -27.7814 -0.550237 0.420077 10
14.8938 -27.7768 0.550145 0.420147 10
9.4741 -17.6691 1.05072 0.0460187 10
6.75341 -12.5951 1.25033 0.60959 10
6.7534 -12.595 1.75476 0.607359 10
6.78955 -12.6625 2.27565 0.385829 10
6.78954 -12.6624 2.79283 0.383462 10
6.78953 -12.6624 3.31707 0.380627 10
6.60302 -12.3146 3.74409 0.178914 10
4.86267 -8.99332 -2.73945 0.0987542 1
5.63999 -10.4309 -2.73765 0.0858879 1
6.69274 -12.378 -2.73522 0.072917 1
6.81017 -12.5951 -2.26781 0.773677 10
6.81016 -12.5951 -1.75807 0.777483 10
13.8047 -25.5312 -2.5393 0.0785599 10
14.8985 -27.5543 -1.64163 0.422229 10
14.8961 -27.5497 -0.546676 0.422814 10
14.8936 -27.5452 0.546585 0.422883 10
9.53699 -17.6383 1.05086 0.0460126 10
6.8101 -12.595 1.25268 0.608447 10
6.81009 -12.595 1.75806 0.60622 10
6.64613 -12.2918 3.74419 0.178909 10
4.89391 -8.97606 -2.73938 0.0987567 1
5.6762 -10.4109 -2.73757 0.0858904 1
6.73568 -12.3541 -2.73513 0.0729195 1
6.86708 -12.5951 -2.27211 0.772214 10
6.86707 -12.5951 -1.7614 0.776013 10
13.8926 -25.4809 -2.5391 0.078566 10
14.8984 -27.3256 -1.63109 0.424957 10
14.8959 -27.3211 -0.543167 0.425545 10
14.8935 -27.3166 0.543077 0.425615 10
9.59978 -17.6072 1.051 0.0460064 10
6.86701 -12.595 1.25506 0.607297 10
6.867 -12.595 1.76139 0.605074 10
6.68917 -12.2688 3.74428 0.178905 10
4.92508 -8.9587 -2.73931 0.0987592 1
5.71234 -10.3907 -2.73749 0.0858929 1
6.77852 -12.3301 -2.73503 0.0729221 1
6.9242 -12.5951 -2.27645 0.770742 10
6.92419 -12.5951 -1.76477 0.774534 10
13.9804 -25.4303 -2.53891 0.078572 10
14.8982 -27.0998 -1.62071 0.42768 10
14.8958 -27.0953 -0.53971 0.428271 10
14.8934 -27.0909 0.539621 0.428341 10
9.66246 -17.576 1.05114 0.0460003 10
6.92413 -12.5949 1.25745 0.606139 10
6.92412 -12.5949 1.76475 0.60392 10
6.73212 -12.2457 3.74438 0.1789 10
4.9562 -8.94122 -2.73924 0.0987616 1
5.7484 -10.3704 -2.73741 0.0858954 1
6.82128 -12.3059 -2.73494 0.0729246 1
6.98154 -12.595 -2.28083 0.76926 10
6.98153 -12.595 -1.76817 0.773045 10
14.068 -25.3794 -2.53871 0.078578 10
14.8981 -26.8768 -1.61048 0.430397 10
14.8956 -26.8725 -0.536302 0.430992 10
14.8932 -26.8681 0.536215 0.431062 10
9.72504 -17.5444 1.05127 0.0459943 10
6.98147 -12.5949 1.25987 0.604974 10
6.98146 -12.5949 1.76815 0.602759 10
6.78194 -12.2349 3.74831 0.586597 10
4.98725 -8.92364 -2.73917 0.0987641 1
5.7844 -10.35 -2.73733 0.0858979 1
6.86396 -12.2816 -2.73484 0.0729271 1
7.03911 -12.595 -2.28526 0.767769 10
7.0391 -12.595 -1.7716 0.771547 10
14.1554 -25.3282 -2.53852 0.0785841 10
14.8979 -26.6566 -1.60039 0.43311 10
14.8955 -26.6524 -0.532944 0.433708 10
14.8931 -26.6481 0.532858 0.433777 10
9.78751 -17.5127 1.05141 0.0459882 10
7.03903 -12.5949 1.26232 0.603801 10
7.03902 -12.5949 1.77158 0.601591 10
6.83786 -12.2349 3.75558 0.58546 10
5.01825 -8.90596 -2.7391 0.0987666 1
5.82032 -10.3294 -2.73725 0.0859004 1
6.90655 -12.2572 -2.73475 0.0729296 1
7.0969 -12.595 -2.28973 0.766269 10
7.09689 -12.595 -1.77507 0.770039 10
14.2427 -25.2767 -2.53833 0.0785901 10
14.8977 -26.4392 -1.59045 0.435817 10
14.8954 -26.435 -0.529634 0.436418 10
14.893 -26.4308 0.529549 0.436488 10
9.84988 -17.4807 1.05155 0.0459821 10
7.09682 -12.5948 1.26479 0.602621 10
7.09681 -12.5948 1.77505 0.600415 10
6.89399 -12.2349 3.76294 0.584316 10
5.04918 -8.88816 -2.73903 0.0987691 1
5.85617 -10.3087 -2.73717 0.085903 1
6.94905 -12.2325 -2.73465 0.0729322 1
7.15492 -12.5949 -2.29425 0.764759 10
7.1549 -12.5949 -1.77857 0.768522 10
14.3297 -25.2249 -2.53813 0.078596 10
14.8976 -26.2245 -1.58065 0.438519 10
14.8952 -26.2203 -0.526372 0.439123 10
14.8928 -26.2162 0.526288 0.439193 10
9.91215 -17.4485 1.05169 0.0459761 10
7.15484 -12.5948 1.26729 0.601434 10
7.15483 -12.5948 1.77856 0.599232 10
6.95035 -12.2348 3.77037 0.583165 10
5.08005 -8.87026 -2.73897 0.0987716 1
5.89195 -10.2879 -2.73709 0.0859054 1
6.99147 -12.2078 -2.73456 0.0729347 1
7.21316 -12.5949 -2.29882 0.76324 10
7.21315 -12.5949 -1.78211 0.766995 10
14.4166 -25.1728 -2.53794 0.078602 10
14.8974 -26.0124 -1.57099 0.441215 10
14.8951 -26.0083 -0.523155 0.441823 10
14.8927 -26.0042 0.523072 0.441893 10
9.9743 -17.4161 1.05183 0.04597 10
7.21309 -12.5948 1.26981 0.60024 10
7.21308 -12.5947 1.78209 0.598042 10
7.25169 -12.6622 2.3111 0.379911 10
7.25168 -12.6621 2.83633 0.37758 10
7.25167 -12.6621 3.36875 0.374789 10
7.00693 -12.2348 3.77787 0.582006 10
5.11085 -8.85225 -2.7389 0.098774 1
5.92765 -10.267 -2.73701 0.0859079 1
7.0338 -12.1829 -2.73446 0.0729372 1
7.27165 -12.5949 -2.30343 0.761712 10
7.27164 -12.5948 -1.78569 0.76546 10
14.5033 -25.1204 -2.53775 0.078608 10
14.8973 -25.8028 -1.56147 0.443906 10
14.8949 -25.7988 -0.519984 0.444517 10
14.8926 -25.7947 0.519902 0.444587 10
10.0364 -17.3835 1.05197 0.045964 10
7.27157 -12.5947 1.27236 0.599038 10
7.27156 -12.5947 1.78567 0.596845 10
7.29039 -12.6273 2.30937 0.218742 10
7.28921 -12.6253 2.83376 0.217434 10
7.28802 -12.6232 3.36514 0.215862 10
7.06374 -12.2348 3.78545 0.580841 10
5.14159 -8.83414 -2.73883 0.0987765 1
5.96329 -10.246 -2.73694 0.0859104 1
7.07604 -12.1579 -2.73437 0.0729397 1
7.33036 -12.5948 -2.30809 0.760175 10
7.33035 -12.5948 -1.7893 0.763914 10
10.3328 -17.7535 -1.79715 0.445433 10
10.3312 -17.7507 -1.07637 0.446592 10
10.3296 -17.748 -0.358441 0.447206 10
10.3279 -17.7452 0.358385 0.447276 10
10.0983 -17.3506 1.0521 0.045958 10
7.33029 -12.5947 1.27493 0.597829 10
7.33027 -12.5947 1.78928 0.59564 10
7.32037 -12.5777 2.30494 0.344722 10
7.31919 -12.5756 2.82833 0.342661 10
7.318 -12.5736 3.3587 0.340183 10
7.12078 -12.2347 3.79311 0.579668 10
5.17227 -8.81592 -2.73876 0.098779 1
5.99884 -10.2248 -2.73686 0.0859129 1
7.11819 -12.1327 -2.73428 0.0729422 1
7.38932 -12.5948 -2.3128 0.758628 10
7.3893 -12.5948 -1.79295 0.76236 10
10.3327 -17.6116 -1.78643 0.448107 10
10.3311 -17.6089 -1.06995 0.449272 10
10.3295 -17.6062 -0.356303 0.449889 10
10.3279 -17.6034 0.356248 0.449959 10
10.1601 -17.3175 1.05224 0.045952 10
7.38924 -12.5947 1.27753 0.596612 10
7.38923 -12.5946 1.79293 0.594428 10
7.32034 -12.4772 2.29121 0.346789 10
7.31917 -12.4752 2.81148 0.344716 10
7.31799 -12.4732 3.33869 0.342222 10
7.17805 -12.2347 3.80084 0.578489 10
5.20288 -8.79759 -2.73869 0.0987814 1
6.03432 -10.2035 -2.73678 0.0859154 1
7.16025 -12.1073 -2.73418 0.0729447 1
7.44851 -12.5948 -2.31755 0.757072 10
7.4485 -12.5947 -1.79663 0.760796 10
7.53855 -12.747 -1.29565 0.297748 10
7.53738 -12.745 -0.776003 0.298522 10
7.53622 -12.7431 -0.258418 0.298932 10
7.53506 -12.7411 0.258378 0.298978 10
7.5339 -12.7391 0.775645 0.29866 10
7.44843 -12.5946 1.28016 0.595388 10
7.44842 -12.5946 1.79662 0.593209 10
7.32031 -12.378 2.27766 0.348851 10
7.31915 -12.376 2.79486 0.346766 10
7.31797 -12.374 3.31896 0.344257 10
7.23555 -12.2347 3.80865 0.577303 10
5.23343 -8.77916 -2.73862 0.0987838 1
6.06973 -10.1821 -2.7367 0.0859178 1
7.20223 -12.0819 -2.73409 0.0729471 1
7.50795 -12.5947 -2.32235 0.755506 10
7.50794 -12.5947 -1.80036 0.759223 10
7.53847 -12.6459 -1.28804 0.299507 10
7.53731 -12.644 -0.771447 0.300285 10
7.53615 -12.642 -0.256901 0.300698 10
7.535 -12.6401 0.256861 0.300744 10
7.53385 -12.6382 0.771093 0.300423 10
7.50787 -12.5946 1.28281 0.594158 10
7.50786 -12.5946 1.80034 0.591982 10
7.32028 -12.2799 2.2643 0.35091 10
7.31912 -12.2779 2.77847 0.348811 10
7.31795 -12.276 3.29949 0.346288 10
7.29329 -12.2346 3.81654 0.576109 10
5.26391 -8.76062 -2.73856 0.0987863 1
6.10506 -10.1605 -2.73662 0.0859203 1
7.24411 -12.0562 -2.734 0.0729496 1
7.56764 -12.5947 -2.3272 0.753932 10
7.56763 -12.5947 -1.80412 0.757641 10
7.56762 -12.5946 -1.2855 0.502282 10
7.56761 -12.5946 -0.770043 0.50351 10
7.5676 -12.5946 -0.256472 0.504125 10
7.56759 -12.5946 0.256472 0.504126 10
7.56757 -12.5946 0.77004 0.503513 10
7.56756 -12.5945 1.28549 0.592919 10
7.56755 -12.5945 1.8041 0.590749 10
7.35131 -12.2346 2.26068 0.587858 10
7.3513 -12.2346 2.77445 0.584252 10
7.35129 -12.2346 3.29525 0.579933 10
7.35128 -12.2346 3.82451 0.574908 10
5.29433 -8.74198 -2.73849 0.0987887 1
6.14031 -10.1389 -2.73654 0.0859228 1
7.2859 -12.0305 -2.7339 0.0729521 1
7.62758 -12.5946 -2.3321 0.752348 10
7.62757 -12.5946 -1.80791 0.75605 10
7.62756 -12.5946 -1.28821 0.501227 10
10.4608 -17.2728 -1.0583 0.760686 10
10.4608 -17.2728 -0.352479 0.761615 10
10.4608 -17.2728 0.352478 0.761616 10
10.4063 -17.1829 1.05279 0.0459281 10
7.6275 -12.5945 1.2882 0.591674 10
7.62749 -12.5945 1.80789 0.589508 10
7.40954 -12.2346 2.26543 0.586623 10
7.40953 -12.2346 2.78029 0.583024 10
7.40952 -12.2346 3.30219 0.578715 10
7.4095 -12.2345 3.83256 0.573701 10
5.32468 -8.72323 -2.73842 0.0987912 1
6.17549 -10.1171 -2.73646 0.0859252 1
7.3276 -12.0045 -2.73381 0.0729546 1
7.68778 -12.5946 -2.33705 0.750755 10
7.68776 -12.5946 -1.81175 0.754449 10
10.5434 -17.2728 -1.77046 0.757224 10
10.5434 -17.2728 -1.06054 0.759075 10
10.5433 -17.2728 -0.353227 0.760003 10
10.5433 -17.2727 0.353226 0.760004 10
10.4676 -17.1487 1.05292 0.0459222 10
7.6877 -12.5945 1.29093 0.590421 10
7.68768 -12.5944 1.81173 0.58826 10
7.68767 -12.5944 2.33702 0.585382 10
7.68766 -12.5944 2.86814 0.58179 10
7.68765 -12.5944 3.40653 0.57749 10
7.68763 -12.5944 3.95366 0.572486 10
5.35497 -8.70438 -2.73836 0.0987936 1
6.21059 -10.0952 -2.73639 0.0859277 1
7.36922 -11.9785 -2.73372 0.072957 1
7.74823 -12.5946 -2.34205 0.749153 10
7.74822 -12.5945 -1.81562 0.752839 10
7.80854 -12.6926 -1.30377 0.306506 10
7.80736 -12.6907 -0.780873 0.307301 10
7.80619 -12.6888 -0.260041 0.307722 10
7.80503 -12.6869 0.260002 0.307768 10
7.80386 -12.685 0.780523 0.307439 10
7.74815 -12.5944 1.29369 0.589161 10
7.74813 -12.5944 1.8156 0.587004 10
7.74812 -12.5944 2.34201 0.584132 10
7.74811 -12.5944 2.87428 0.580549 10
7.7481 -12.5944 3.41381 0.576258 10
7.74808 -12.5943 3.96212 0.571265 10
5.38519 -8.68542 -2.73829 0.098796 1
6.24561 -10.0731 -2.73631 0.0859301 1
7.41073 -11.9523 -2.73363 0.0729595 1
7.80894 -12.5945 -2.34709 0.747542 10
7.80893 -12.5945 -1.81954 0.75122 10
7.80892 -12.5945 -1.29649 0.498025 10
7.8089 -12.5945 -0.776625 0.499243 10
7.80889 -12.5945 -0.258664 0.499853 10
7.80888 -12.5944 0.258664 0.499854 10
7.80887 -12.5944 0.776622 0.499245 10
7.80886 -12.5944 1.29648 0.587894 10
7.80884 -12.5944 1.81952 0.585742 10
7.80883 -12.5944 2.34706 0.582876 10
7.80882 -12.5943 2.88047 0.5793 10
7.80881 -12.5943 3.42117 0.575018 10
7.80879 -12.5943 3.97065 0.570036 10
5.41534 -8.66636 -2.73822 0.0987984 1
6.28056 -10.051 -2.73623 0.0859325 1
7.45216 -11.9259 -2.73354 0.0729619 1
7.86991 -12.5945 -2.35219 0.745922 10
7.8699 -12.5945 -1.82349 0.749592 10
7.86989 -12.5945 -1.2993 0.496946 10
7.86987 -12.5944 -0.778312 0.498161 10
7.86986 -12.5944 -0.259226 0.498769 10
7.86985 -12.5944 0.259226 0.49877 10
7.86984 -12.5944 0.778309 0.498163 10
7.86983 -12.5944 1.29929 0.58662 10
7.86982 -12.5943 1.82347 0.584472 10
7.8698 -12.5943 2.35216 0.581613 10
7.86979 -12.5943 2.88673 0.578045 10
7.86978 -12.5943 3.4286 0.573772 10
7.86976 -12.5943 3.97928 0.568801 10
5.44543 -8.64719 -2.73815 0.0988008 1
6.31543 -10.0287 -2.73615 0.085935 1
7.49349 -11.8995 -2.73344 0.0729644 1
7.93115 -12.5945 -2.35734 0.744293 10
7.93113 -12.5944 -1.82748 0.747955 10
14.8979 -23.6575 -2.44597 0.47192 10
14.8957 -23.654 -1.46498 0.473143 10
14.8935 -23.6505 -0.487857 0.47379 10
14.8913 -23.6471 0.487785 0.47386 10
10.7115 -17.0096 1.05347 0.0458985 10
7.93106 -12.5943 1.30214 0.585339 10
7.93105 -12.5943 1.82746 0.583196 10
7.93104 -12.5943 2.35731 0.580343 10
7.93102 -12.5943 2.89305 0.576782 10
7.93101 -12.5942 3.4361 0.572519 10
7.931 -12.5942 3.98799 0.567558 10
5.47544 -8.62792 -2.73809 0.0988032 1
6.35021 -10.0063 -2.73608 0.0859374 1
7.53473 -11.8728 -2.73335 0.0729668 1
