VERSION 0.7
FIELDS x y z intensity label
SIZE 4 4 4 4 4
TYPE F F F F F
COUNT 1 1 1 1 1
WIDTH 1197
HEIGHT 1
VIEWPOINT 11.1229 7.48585 2.72675 0.999984 -0.000262244 0.00100035 -0.00557114
POINTS 1197
DATA ascii
8.55457 -12.4936 -1.85917 0.00141741 10
8.64357 -12.6236 -1.33851 0.000616326 10
8.64729 -12.629 -0.802144 0.000622377 10
8.64151 -12.6206 -0.266986 0.00062557 10
8.63897 -12.6169 0.266907 0.00062587 10
8.64458 -12.6251 0.801894 0.000623273 10
8.55752 -12.498 1.32519 0.00112013 10
8.54777 -12.4837 1.85769 0.00110453 10
8.54774 -12.4837 2.3963 0.00108402 10
8.54684 -12.4823 2.94059 0.00105882 10
8.55783 -12.4984 3.49707 0.00102919 10
8.55261 -12.4908 4.05628 0.000995448 10
5.7702 -8.36438 -2.72279 0.000514423 1
6.68525 -9.69083 -2.71802 0.000311289 1
7.93853 -11.5076 -2.71746 0.000169937 1
8.6219 -12.4982 -2.40484 0.00137898 10
8.61397 -12.4867 -1.86259 0.00140484 10
8.63479 -12.5168 -1.33038 0.000628649 10
8.63868 -12.5225 -0.797286 0.000634813 10
8.63426 -12.5161 -0.26541 0.000638065 10
8.64175 -12.5269 0.265641 0.000638368 10
8.64159 -12.5267 0.797555 0.000635721 10
8.62547 -12.5033 1.32894 0.00111021 10
8.61166 -12.4833 1.8621 0.00109474 10
8.61997 -12.4954 2.4043 0.0010744 10
8.62342 -12.5004 2.95191 0.00104941 10
8.61914 -12.4942 3.50428 0.00102003 10
8.61522 -12.4885 4.06527 0.00098657 10
5.78925 -8.32964 -2.71805 0.00051447 1
6.71829 -9.66636 -2.71772 0.000311322 1
7.97152 -11.4695 -2.71503 0.000169959 1
8.68637 -12.498 -2.41064 0.00136664 10
8.68218 -12.492 -1.8679 0.00139229 10
8.67351 -12.4795 -1.32962 0.000932489 10
8.6818 -12.4915 -0.797237 0.000941104 10
8.67578 -12.4828 -0.265346 0.000945395 10
8.67497 -12.4816 0.265321 0.000945318 10
8.67795 -12.4859 0.796884 0.000940871 10
8.68591 -12.4974 1.33152 0.00110029 10
8.67735 -12.4851 1.86686 0.00108495 10
8.68906 -12.5019 2.41139 0.00106479 10
8.68109 -12.4905 2.95671 0.00104001 10
8.67639 -12.4837 3.50982 0.00101088 10
8.67445 -12.4809 4.07264 0.0009777 10
5.8165 -8.30682 -2.71721 0.000514516 1
6.74836 -9.63765 -2.71626 0.000311356 1
8.01053 -11.4402 -2.7147 0.000169981 1
8.74166 -12.4844 -2.41388 0.00135432 10
8.74458 -12.4886 -1.87194 0.00137975 10
15.2475 -21.7757 0.464011 0.000257101 10
11.6906 -16.696 1.06818 3.8151e-05 10
8.74403 -12.4878 1.33374 0.00109039 10
8.74668 -12.4916 1.87239 0.00107518 10
8.74675 -12.4916 2.41528 0.00105518 10
8.75144 -12.4984 2.96579 0.00103062 10
8.74513 -12.4893 3.51997 0.00100173 10
8.73992 -12.4819 4.0829 0.000968839 10
5.84684 -8.28843 -2.71785 0.000514562 1
6.78603 -9.61981 -2.71789 0.000311389 1
8.05262 -11.4153 -2.71545 0.000170003 1
8.80912 -12.4877 -2.42045 0.00134201 10
8.81705 -12.499 -1.8781 0.00136722 10
8.91826 -12.6424 -1.35358 0.000610505 10
8.90824 -12.6282 -0.809915 0.000616507 10
8.90359 -12.6217 -0.269612 0.000619671 10
8.90834 -12.6284 0.269755 0.000619962 10
8.91336 -12.6355 0.810381 0.000617378 10
8.80216 -12.4779 1.33596 0.00108049 10
8.80444 -12.4811 1.87541 0.00106542 10
8.81017 -12.4892 2.42074 0.00104559 10
8.80585 -12.4831 2.96945 0.00102123 10
8.81156 -12.4912 3.52914 0.000992598 10
8.80699 -12.4847 4.09385 0.000959988 10
5.87517 -8.26717 -2.71759 0.000514608 1
6.81865 -9.59477 -2.71752 0.000311422 1
8.09597 -11.3921 -2.71664 0.000170025 1
8.87054 -12.4821 -2.42534 0.00132971 10
8.88153 -12.4975 -1.88253 0.00135471 10
8.90773 -12.5344 -1.34533 0.000622375 10
8.91569 -12.5456 -0.806606 0.000628486 10
8.91379 -12.5429 -0.268593 0.000631706 10
8.90661 -12.5328 0.268376 0.000632001 10
8.91175 -12.54 0.806249 0.000629368 10
8.87084 -12.4825 1.33976 0.00107061 10
8.8686 -12.4793 1.87979 0.00105566 10
8.88388 -12.5008 2.42899 0.00103601 10
8.87505 -12.4884 2.97806 0.00101186 10
8.87226 -12.4845 3.53597 0.000983476 10
8.88275 -12.4992 4.10876 0.000951148 10
5.90682 -8.25056 -2.71889 0.000514654 1
6.85296 -9.57212 -2.71787 0.000311455 1
8.13876 -11.3681 -2.71767 0.000170047 1
8.9427 -12.491 -2.43314 0.00131743 10
8.94088 -12.4885 -1.88586 0.00134221 10
8.93299 -12.4775 -1.34256 0.000898973 10
8.93629 -12.4821 -0.804523 0.000907294 10
8.93708 -12.4832 -0.26798 0.000911439 10
8.93259 -12.4769 0.267845 0.000911363 10
8.93955 -12.4866 0.804817 0.000907067 10
8.94563 -12.4951 1.34446 0.00106074 10
8.9367 -12.4827 1.88498 0.00104592 10
8.93667 -12.4826 2.4315 0.00102644 10
8.93295 -12.4774 2.98286 0.0010025 10
8.9403 -12.4877 3.54569 0.000974364 10
8.94927 -12.5002 4.11932 0.00094232 10
5.92854 -8.22012 -2.71566 0.0005147 1
6.88252 -9.54286 -2.71636 0.000311488 1
8.17863 -11.34 -2.71774 0.00017007 1
9.0074 -12.4891 -2.43886 0.00130517 10
9.00455 -12.4851 -1.89009 0.00132973 10
15.697 -21.7645 0.468398 0.00024636 10
11.9214 -16.5295 1.06807 3.80697e-05 10
9.00633 -12.4876 1.34702 0.00105088 10
8.998 -12.476 1.88871 0.00103619 10
9.01087 -12.4939 2.4398 0.00101688 10
9.01171 -12.495 2.99457 0.000993158 10
9.00965 -12.4922 3.55588 0.000965266 10
9.00606 -12.4872 4.12537 0.000933504 10
5.95944 -8.20247 -2.71669 0.000514746 1
6.91036 -9.5113 -2.71423 0.000311521 1
8.20669 -11.2955 -2.71395 0.000170092 1
9.0709 -12.485 -2.44424 0.00129293 10
9.06764 -12.4805 -1.89417 0.00131727 10
9.18416 -12.6409 -1.36701 0.000604901 10
9.1807 -12.6362 -0.818565 0.000610855 10
9.18193 -12.6378 -0.27267 0.000613991 10
9.18026 -12.6355 0.27262 0.000614275 10
9.18286 -12.6391 0.818757 0.000611703 10
9.07885 -12.496 1.35134 0.00104104 10
9.06518 -12.4771 1.89366 0.00102648 10
9.07961 -12.497 2.44659 0.00100734 10
9.06854 -12.4818 2.99896 0.000983825 10
9.06701 -12.4797 3.56131 0.00095618 10
9.06701 -12.4797 4.13331 0.0009247 10
5.99231 -8.18746 -2.71862 0.000514792 1
6.95544 -9.50341 -2.71889 0.000311554 1
8.25124 -11.2739 -2.71565 0.000170114 1
9.14031 -12.4887 -2.45119 0.0012807 10
9.13407 -12.4801 -1.89894 0.00130482 10
9.17588 -12.5373 -1.35926 0.00061634 10
9.18085 -12.544 -0.814669 0.000622399 10
9.18265 -12.5465 -0.271389 0.00062559 10
9.18214 -12.5458 0.271374 0.000625877 10
9.17461 -12.5355 0.814115 0.000623258 10
9.14063 -12.4891 1.35404 0.00103121 10
9.14153 -12.4903 1.90049 0.00101678 10
9.13605 -12.4828 2.45004 0.000997814 10
9.14473 -12.4947 3.00972 0.000974507 10
9.1455 -12.4958 3.57498 0.00094711 10
9.13583 -12.4825 4.14479 0.000915911 10
6.01418 -8.15744 -2.71561 0.000514838 1
6.99221 -9.484 -2.7203 0.000311587 1
8.28693 -11.2401 -2.71447 0.000170136 1
9.20225 -12.4816 -2.4561 0.00126849 10
9.19892 -12.4771 -1.90335 0.0012924 10
9.19914 -12.4774 -1.35624 0.000865636 10
9.20847 -12.4901 -0.813246 0.000873665 10
9.20462 -12.4848 -0.270749 0.000877664 10
9.20894 -12.4907 0.270875 0.00087759 10
9.19712 -12.4747 0.812244 0.000873444 10
9.2028 -12.4824 1.35678 0.0010214 10
9.2129 -12.4961 1.90624 0.0010071 10
9.20014 -12.4788 2.45553 0.000988301 10
9.20126 -12.4803 3.01397 0.000965204 10
9.20905 -12.4909 3.58276 0.000938054 10
9.21074 -12.4931 4.15897 0.000907137 10
6.05195 -8.14896 -2.71981 0.000514883 1
7.0126 -9.44247 -2.7154 0.00031162 1
8.32363 -11.2078 -2.71366 0.000170158 1
9.26508 -12.4754 -2.46123 0.00125631 10
9.2667 -12.4776 -1.90835 0.00128 10
16.161 -21.7608 0.47313 0.000235733 10
12.1635 -16.3782 1.06917 3.7989e-05 10
9.2798 -12.4953 1.3617 0.0010116 10
9.26374 -12.4736 1.90774 0.000997433 10
9.26982 -12.4818 2.46249 0.000978805 10
9.26878 -12.4804 3.02179 0.000955917 10
9.26402 -12.474 3.58718 0.000929013 10
9.26597 -12.4766 4.16422 0.000898378 10
6.06972 -8.11357 -2.71505 0.000514929 1
7.05836 -9.43511 -2.72035 0.000311653 1
8.3705 -11.1891 -2.71619 0.000170179 1
9.33913 -12.4839 -2.46931 0.00124414 10
9.333 -12.4757 -1.91303 0.00126762 10
9.45005 -12.6321 -1.3802 0.000599474 10
9.45191 -12.6346 -0.826935 0.000605383 10
9.44456 -12.6248 -0.275207 0.000608491 10
9.4449 -12.6253 0.275217 0.000608767 10
9.43865 -12.6169 0.825775 0.000606208 10
9.34325 -12.4894 1.3646 0.00100183 10
9.33104 -12.4731 1.91263 0.000987784 10
9.33103 -12.473 2.46716 0.000969326 10
9.34161 -12.4872 3.03131 0.000946647 10
9.34234 -12.4882 3.60061 0.000919989 10
9.33241 -12.4749 4.17448 0.000889634 10
6.10602 -8.10296 -2.71861 0.000514975 1
7.0822 -9.3984 -2.71687 0.000311685 1
8.39906 -11.1459 -2.71281 0.000170201 1
9.41175 -12.4898 -2.47696 0.001232 10
9.39774 -12.4712 -1.91736 0.00125526 10
9.44565 -12.5348 -1.37316 0.000610503 10
9.454 -12.5459 -0.823282 0.000616513 10
9.45283 -12.5443 -0.27417 0.000619674 10
9.43979 -12.527 0.273792 0.000619954 10
9.45059 -12.5414 0.822985 0.000617348 10
9.408 -12.4848 1.36768 0.000992067 10
9.40064 -12.4751 1.91795 0.000978154 10
9.4148 -12.4939 2.47777 0.000959865 10
9.40003 -12.4743 3.03612 0.000937395 10
9.41266 -12.491 3.61088 0.000910983 10
9.41433 -12.4932 4.19159 0.000880908 10
6.13796 -8.08647 -2.72025 0.00051502 1
7.11048 -9.36772 -2.71516 0.000311718 1
8.4419 -11.1218 -2.7141 0.000170223 1
9.47992 -12.4893 -2.48342 0.00121989 10
9.46582 -12.4708 -1.92236 0.00124293 10
9.47813 -12.487 -1.37153 0.000832525 10
9.46813 -12.4738 -0.820715 0.000840263 10
9.46684 -12.4721 -0.273312 0.000844117 10
9.47154 -12.4783 0.273448 0.000844045 10
9.47283 -12.48 0.821123 0.000840048 10
9.47619 -12.4844 1.37125 0.000982326 10
9.46736 -12.4728 1.92267 0.000968542 10
9.47201 -12.4789 2.48135 0.000950423 10
9.46767 -12.4732 3.04388 0.000928161 10
9.46693 -12.4722 3.61498 0.000901995 10
9.48305 -12.4935 4.20274 0.0008722 10
6.16614 -8.06498 -2.72025 0.000515066 1
7.14315 -9.34285 -2.71517 0.000311751 1
8.4925 -11.1077 -2.71788 0.000170245 1
9.53703 -12.4739 -2.48696 0.0012078 10
9.5348 -12.471 -1.92752 0.00123062 10
16.6393 -21.7634 0.478189 0.000225234 10
12.394 -16.2106 1.06942 3.79089e-05 10
9.53777 -12.4749 1.37386 0.000972606 10
9.55033 -12.4913 1.93065 0.00095895 10
9.54972 -12.4905 2.49027 0.000941 10
9.54742 -12.4875 3.05549 0.000918947 10
9.55071 -12.4918 3.6303 0.000893025 10
9.54573 -12.4853 4.21118 0.000863509 10
6.18322 -8.02908 -2.7154 0.000515111 1
7.18191 -9.32591 -2.71751 0.000311783 1
8.51966 -11.063 -2.7142 0.000170267 1
9.6141 -12.4842 -2.49567 0.00119573 10
9.60484 -12.4721 -1.93286 0.00121834 10
9.71457 -12.6146 -1.39297 0.000594187 10
9.71348 -12.6132 -0.83433 0.000600051 10
9.72605 -12.6295 -0.278243 0.000603134 10
9.72527 -12.6285 0.278221 0.000603403 10
9.72086 -12.6228 0.834964 0.000600856 10
9.61073 -12.4798 1.37808 0.000962905 10
9.61512 -12.4855 1.93493 0.000949378 10
9.55852 -12.412 2.48125 0.00071202 10
9.55603 -12.4088 3.04436 0.000695725 10
9.55269 -12.4044 3.61457 0.000676488 10
9.60771 -12.4759 4.21929 0.000854838 10
6.21258 -8.00921 -2.716 0.000515157 1
7.21572 -9.30245 -2.718 0.000311816 1
8.56815 -11.046 -2.71734 0.000170289 1
9.67312 -12.4705 -2.49968 0.00118369 10
9.67855 -12.4775 -1.93892 0.00120608 10
9.71294 -12.5219 -1.38646 0.000604825 10
9.71208 -12.5207 -0.83045 0.000610786 10
9.71508 -12.5246 -0.276677 0.00061392 10
9.72362 -12.5356 0.27692 0.000614193 10
9.71763 -12.5279 0.830925 0.000611601 10
9.6872 -12.4887 1.38279 0.000953227 10
9.67295 -12.4703 1.9378 0.000939828 10
9.56551 -12.3318 2.47187 0.000724735 10
9.55306 -12.3157 3.0297 0.000708163 10
9.55812 -12.3223 3.60033 0.000688601 10
9.68537 -12.4863 4.23423 0.000846186 10
6.25085 -8.00072 -2.7205 0.000515201 1
7.25007 -9.27966 -2.71872 0.000311848 1
8.59501 -11.0011 -2.71367 0.00017031 1
9.74508 -12.4731 -2.50701 0.00117168 10
9.74269 -12.4701 -1.94304 0.00119386 10
9.74508 -12.4731 -1.38483 0.000799684 10
9.74755 -12.4763 -0.829754 0.000807133 10
9.75341 -12.4838 -0.276526 0.000810843 10
9.75707 -12.4885 0.27663 0.000810773 10
9.74704 -12.4756 0.829711 0.000806924 10
9.75551 -12.4865 1.38631 0.000943571 10
9.74526 -12.4734 1.94355 0.000930299 10
9.56107 -12.2376 2.45967 0.00073757 10
9.55684 -12.2322 3.01734 0.000720719 10
9.55378 -12.2283 3.58259 0.000700828 10
9.74403 -12.4718 4.24081 0.000837555 10
5.82959 -7.40809 -2.5259 0.000138882 4
7.27221 -9.24134 -2.71491 0.000311881 1
8.64447 -10.9852 -2.71716 0.000170332 1
9.81279 -12.4698 -2.51322 0.0011597 10
9.81837 -12.4769 -1.94943 0.00118166 10
17.1294 -21.7675 0.483489 0.000214879 10
12.6237 -16.0418 1.06981 3.78293e-05 10
9.81611 -12.4741 1.38872 0.000933938 10
9.82479 -12.4851 1.9507 0.000920795 10
9.55558 -12.143 2.44734 0.000750524 10
9.55652 -12.1442 3.00384 0.000733393 10
9.56445 -12.1543 3.57066 0.00071317 10
9.81636 -12.4744 4.25331 0.000828946 10
5.85706 -7.38978 -2.52661 0.000116371 4
7.30117 -9.21179 -2.7137 0.000311913 1
8.67419 -10.9441 -2.71448 0.000170354 1
9.88295 -12.4692 -2.52002 0.00114775 10
9.89497 -12.4843 -1.95598 0.0011695 10
9.98678 -12.6002 -1.40664 0.000589011 10
9.99541 -12.6111 -0.843338 0.000594831 10
9.98238 -12.5946 -0.280518 0.000597889 10
9.97826 -12.5894 0.280402 0.000598152 10
9.98453 -12.5973 0.84242 0.000595616 10
9.8972 -12.4872 1.39402 0.000924329 10
9.89731 -12.4873 1.95644 0.000911313 10
9.60478 -12.1182 2.44909 0.000970874 10
9.61249 -12.1279 3.00811 0.000948196 10
9.5994 -12.1114 3.5679 0.000921539 10
9.89856 -12.4889 4.27002 0.000820357 10
5.8829 -7.36938 -2.52664 0.000326616 4
7.34386 -9.1995 -2.71761 0.000311946 1
8.70958 -10.9103 -2.71362 0.000170375 1
9.95119 -12.4656 -2.52631 0.00113583 10
9.96463 -12.4825 -1.96112 0.00115736 10
9.98674 -12.5102 -1.40047 0.000599274 10
9.99112 -12.5157 -0.839285 0.000605189 10
9.99497 -12.5205 -0.279642 0.000608296 10
9.98492 -12.5079 0.279361 0.000608562 10
9.99054 -12.5149 0.839236 0.000605983 10
9.95915 -12.4756 1.3966 0.000914745 10
9.96154 -12.4786 1.96051 0.000901856 10
9.68124 -12.1275 2.45778 0.000960851 10
9.667 -12.1096 3.01192 0.000938394 10
10.0185 -12.5499 3.70737 0.000527869 10
9.96662 -12.485 4.28055 0.000811792 10
5.91156 -7.3525 -2.52791 0.000559426 4
7.37944 -9.17817 -2.71891 0.000311978 1
8.74187 -10.8727 -2.71184 0.000170397 1
10.0291 -12.4736 -2.53501 0.00112394 10
10.0369 -12.4833 -1.96675 0.00114526 10
10.0205 -12.463 -1.3991 0.000767157 10
10.0385 -12.4854 -0.8396 0.00077432 10
10.0256 -12.4693 -0.27928 0.000777886 10
10.0299 -12.4747 0.279399 0.000777818 10
10.0267 -12.4708 0.838615 0.000774116 10
10.0254 -12.4691 1.39979 0.000905186 10
10.0298 -12.4746 1.96537 0.000892424 10
10.0809 -12.5382 3.71426 0.000522319 10
10.0396 -12.4867 4.29315 0.00080325 10
5.93322 -7.32692 -2.52622 0.000529435 4
7.40705 -9.14695 -2.7173 0.00031201 1
8.79264 -10.858 -2.71581 0.000170419 1
10.0951 -12.4665 -2.5407 0.00111208 10
10.096 -12.4675 -1.9698 0.0011332 10
10.3532 -12.7852 -1.43932 0.000847388 10
10.352 -12.7836 -0.862079 0.000855798 10
10.3516 -12.7832 -0.287117 0.000860215 10
10.3536 -12.7856 0.287171 0.00086059 10
10.3577 -12.7906 0.862552 0.000856918 10
10.1018 -12.4747 1.40437 0.000895655 10
10.1054 -12.4792 1.97163 0.000883019 10
10.1505 -12.5348 3.72374 0.000516784 10
10.1082 -12.4825 4.3038 0.000794732 10
5.97339 -7.3241 -2.53242 0.000375518 4
7.44439 -9.12773 -2.71929 0.000312043 1
8.82862 -10.825 -2.71524 0.00017044 1
10.1643 -12.4627 -2.54715 0.00110026 10
10.1656 -12.4643 -1.97488 0.00112116 10
10.2544 -12.5731 -1.41946 0.000583918 10
10.2515 -12.5696 -0.850055 0.000589695 10
10.2645 -12.5855 -0.283479 0.000592728 10
10.2562 -12.5754 0.283251 0.000592985 10
10.2514 -12.5695 0.850046 0.000590461 10
10.1651 -12.4636 1.4071 0.000886149 10
10.1677 -12.4668 1.97528 0.00087364 10
10.2309 -12.5444 2.56384 0.00053892 10
10.2332 -12.5471 3.14722 0.000526207 10
10.2349 -12.5493 3.73862 0.000511266 10
10.1786 -12.4802 4.31522 0.000786239 10
5.99834 -7.3025 -2.53218 0.000514504 4
7.46909 -9.09302 -2.71671 0.000312075 1
8.85905 -10.7852 -2.713 0.000170462 1
10.2517 -12.4806 -2.5581 0.00108847 10
10.2431 -12.4702 -1.98146 0.00110916 10
10.2643 -12.496 -1.41479 0.000593823 10
10.2636 -12.4952 -0.847438 0.000599691 10
10.2537 -12.4831 -0.281977 0.000602772 10
10.2502 -12.4788 0.28188 0.000603031 10
10.2589 -12.4894 0.84705 0.000600466 10
10.2362 -12.4617 1.41091 0.000876672 10
10.2502 -12.4788 1.98283 0.000864289 10
10.2666 -12.4987 3.73422 0.000150344 10
10.2404 -12.4669 4.32297 0.000777771 10
6.01499 -7.27087 -2.52848 0.000503281 4
7.50633 -9.0736 -2.71872 0.000312107 1
8.89825 -10.7561 -2.71349 0.000170483 1
10.325 -12.4808 -2.56551 0.00107672 10
10.3197 -12.4743 -1.98784 0.0010972 10
10.3193 -12.4739 -1.41636 0.000734988 10
10.324 -12.4796 -0.848819 0.000741866 10
10.3106 -12.4634 -0.282343 0.00074529 10
10.3258 -12.4817 0.282758 0.000745224 10
10.3101 -12.4628 0.84768 0.000741668 10
10.3231 -12.4785 1.41688 0.000867223 10
10.3103 -12.4631 1.98604 0.000854965 10
10.3279 -12.4842 3.74064 0.000508028 10
10.3212 -12.4762 4.33866 0.000769329 10
6.04662 -7.25738 -2.53111 0.000480788 4
7.53053 -9.03842 -2.71603 0.000312139 1
8.94027 -10.7304 -2.71487 0.000170505 1
10.383 -12.4621 -2.5691 0.00106501 10
10.3851 -12.4646 -1.99205 0.00108528 10
10.3808 -12.4594 -1.41882 0.00110065 10
10.3815 -12.4602 -0.849965 0.00111095 10
10.388 -12.4681 -0.28327 0.00111608 10
10.388 -12.468 0.283268 0.00111599 10
10.3928 -12.4738 0.850891 0.00111066 10
10.3862 -12.4659 1.41956 0.000857804 10
10.3906 -12.4712 1.99311 0.000845672 10
10.4005 -12.4831 3.75114 0.000502482 10
10.3938 -12.475 4.35083 0.000760914 10
6.07029 -7.23428 -2.53043 0.000454533 4
7.56152 -9.01147 -2.71585 0.000312171 1
8.97585 -10.697 -2.71432 0.000170526 1
10.4584 -12.4638 -2.57697 0.00105333 10
10.4628 -12.469 -1.99858 0.00107339 10
10.4601 -12.4658 -1.4237 0.0010886 10
10.466 -12.4729 -0.853317 0.0010988 10
10.4625 -12.4687 -0.284112 0.00110388 10
10.4686 -12.476 0.284278 0.00110378 10
10.4658 -12.4727 0.853301 0.00109851 10
10.4644 -12.471 1.4243 0.000848414 10
10.4556 -12.4605 1.99721 0.000836407 10
10.4735 -12.4818 3.76174 0.000496954 10
10.4718 -12.4798 4.36522 0.000752527 10
6.08639 -7.20227 -2.52665 0.000469599 4
7.59211 -8.98404 -2.71555 0.000312203 1
9.00356 -10.6543 -2.71143 0.000170547 1
10.5441 -12.4773 -2.58736 0.00104169 10
10.5363 -12.4681 -2.00431 0.00106154 10
10.5291 -12.4595 -1.42717 0.0010766 10
10.5417 -12.4745 -0.855934 0.00108669 10
10.5417 -12.4744 -0.285078 0.00109171 10
10.5456 -12.4791 0.285185 0.00109162 10
10.5317 -12.4626 0.85512 0.0010864 10
10.5342 -12.4655 1.42785 0.000839057 10
10.5311 -12.4618 2.00331 0.000827174 10
10.5274 -12.4575 3.76546 0.000230033 10
10.534 -12.4653 4.373 0.000744167 10
6.11699 -7.18744 -2.52892 0.000525996 4
7.62097 -8.95461 -2.71468 0.000312235 1
9.05261 -10.6368 -2.71501 0.000170569 1
10.6045 -12.4603 -2.59148 0.00103009 10
10.6053 -12.4612 -2.00915 0.00104973 10
10.6089 -12.4654 -1.43208 0.00106463 10
10.6029 -12.4583 -0.857362 0.00107462 10
10.6077 -12.464 -0.285685 0.00107959 10
10.6107 -12.4676 0.285766 0.00107949 10
10.6101 -12.4669 0.857949 0.00107433 10
10.6074 -12.4637 1.43188 0.00082973 10
10.6207 -12.4793 2.01207 0.000817971 10
10.68 -12.549 2.60993 0.000419697 10
10.6692 -12.5363 3.19984 0.000409974 10
10.5736 -12.424 3.76646 0.000230008 10
10.6095 -12.4661 4.38622 0.000735837 10
6.13787 -7.16118 -2.5272 0.000511011 4
7.6562 -8.93264 -2.71611 0.000312267 1
9.09166 -10.6074 -2.7156 0.00017059 1
10.6865 -12.4682 -2.60087 0.00101853 10
10.6769 -12.4569 -2.01445 0.00103797 10
10.6788 -12.4592 -1.43563 0.00105271 10
10.6777 -12.4579 -0.859894 0.00106259 10
10.6796 -12.4601 -0.286448 0.00106751 10
10.6923 -12.475 0.28679 0.00106741 10
10.6949 -12.4779 0.861274 0.0010623 10
10.6812 -12.4619 1.43595 0.000820436 10
10.6919 -12.4745 2.0173 0.000808801 10
10.7348 -12.5245 2.61262 0.00041964 10
10.7396 -12.5302 3.20783 0.000409915 10
10.6251 -12.3965 3.76936 0.000229983 10
10.6971 -12.4806 4.40443 0.000727536 10
6.16117 -7.13779 -2.52652 0.000473477 4
7.68974 -8.90865 -2.71696 0.000312299 1
9.12143 -10.5673 -2.71346 0.000170611 1
10.7563 -12.4613 -2.60725 0.00100702 10
10.7564 -12.4614 -2.02124 0.00102624 10
14.7788 -17.1214 -1.97878 0.000336274 10
14.7769 -17.1192 -1.18519 0.000339888 10
14.7763 -17.1185 -0.394724 0.000341784 10
14.7827 -17.1259 0.394895 0.000341939 10
13.3588 -15.4764 1.07145 3.75748e-05 10
10.7662 -12.4727 1.44152 0.000811175 10
10.7555 -12.4604 2.02108 0.000799664 10
10.7682 -12.4751 2.61013 0.000662598 10
10.7669 -12.4736 3.20295 0.000647246 10
10.6679 -12.3589 3.76923 0.000229957 10
10.7625 -12.4684 4.41338 0.000608452 10
6.19172 -7.12276 -2.52884 0.000522372 4
7.70829 -8.86737 -2.71256 0.000312331 1
9.15917 -10.5364 -2.71372 0.000170633 1
10.843 -12.4734 -2.61768 0.000995541 10
10.8407 -12.4708 -2.02889 0.00101456 10
14.8706 -17.1067 -1.98307 0.000395504 10
14.8585 -17.0927 -1.18694 0.000399533 10
14.8686 -17.1044 -0.395594 0.00040154 10
14.8714 -17.1076 0.395667 0.000401501 10
13.4074 -15.4235 1.07102 3.75554e-05 10
10.7607 -12.3787 1.43499 0.000695378 10
10.7661 -12.3849 2.01492 0.000685872 10
10.7587 -12.3765 2.59734 0.000673258 10
10.762 -12.3802 3.1886 0.000657672 10
10.6987 -12.3075 3.76489 0.000229932 10
10.7604 -12.3784 4.39479 0.000618287 10
6.20554 -7.08853 -2.52436 0.00044349 4
7.75191 -8.85494 -2.71702 0.000312362 1
9.19604 -10.5046 -2.71377 0.000170654 1
10.911 -12.4635 -2.62358 0.000984109 10
10.92 -12.4739 -2.03558 0.00100292 10
14.9722 -17.1026 -1.98864 0.000390593 10
14.9744 -17.1052 -1.19142 0.000394576 10
14.9723 -17.1027 -0.396761 0.00039656 10
14.977 -17.1081 0.396885 0.000396521 10
13.4714 -15.3882 1.07183 3.75362e-05 10
10.7654 -12.2972 1.42988 0.000706458 10
10.7693 -12.3017 2.00748 0.000696807 10
10.7686 -12.3009 2.58935 0.000684002 10
10.7603 -12.2914 3.17538 0.000668181 10
10.7427 -12.2713 3.76527 0.000229907 10
10.7503 -12.2799 4.37312 0.0006282 10
6.24743 -7.08632 -2.53132 0.000417217 4
7.78662 -8.83219 -2.71836 0.000312394 1
9.22272 -10.4611 -2.71085 0.000170675 1
10.9813 -12.4558 -2.63002 0.000972722 10
10.996 -12.4725 -2.0416 0.000991331 10
15.0717 -17.0954 -1.99391 0.000385705 10
15.0707 -17.0943 -1.19432 0.000389642 10
15.0829 -17.1082 -0.398108 0.000391602 10
15.0793 -17.1041 0.398013 0.000391563 10
13.5355 -15.353 1.07266 3.75169e-05 10
10.7551 -12.1993 1.42286 0.000717623 10
10.7683 -12.2142 1.99933 0.000707828 10
10.757 -12.2014 2.57631 0.000694831 10
10.7653 -12.2108 3.16426 0.000678773 10
10.7536 -12.1976 3.75415 0.000659826 10
10.7541 -12.1981 4.35733 0.000638192 10
6.25886 -7.04953 -2.52597 0.000436047 4
7.80546 -8.79151 -2.71421 0.000312426 1
9.27124 -10.4424 -2.71438 0.000170696 1
11.0688 -12.4671 -2.64055 0.000961378 10
11.0659 -12.4639 -2.0465 0.000979783 10
19.292 -21.7291 0.507199 0.000172805 10
13.5918 -15.3089 1.07289 3.74978e-05 10
10.755 -12.1136 1.41723 0.000728874 10
10.7629 -12.1225 1.99046 0.000718933 10
10.7668 -12.1269 2.5685 0.000705743 10
10.7503 -12.1084 3.14742 0.000689446 10
10.7509 -12.109 3.73842 0.000670217 10
10.763 -12.1227 4.34376 0.000648261 10
6.2947 -7.04024 -2.5305 0.000462399 4
7.83857 -8.76696 -2.71506 0.000312457 1
9.29943 -10.4008 -2.71198 0.000170717 1
11.1317 -12.4502 -2.64517 0.00095008 10
11.1342 -12.453 -2.05108 0.000968281 10
19.4366 -21.7387 0.509004 0.000170441 10
13.641 -15.2566 1.07255 3.74786e-05 10
10.8236 -12.1056 1.4207 0.000831841 10
10.8224 -12.1042 1.99363 0.000820072 10
10.832 -12.115 2.57396 0.000804605 10
10.8286 -12.1112 3.15795 0.000785607 10
10.8212 -12.1029 3.74818 0.000763281 10
10.8294 -12.1121 4.35348 0.000737864 10
6.30757 -7.00527 -2.52583 0.000406043 4
7.87734 -8.74868 -2.7179 0.000312489 1
9.34372 -10.3773 -2.71432 0.000170739 1
11.2286 -12.4706 -2.65783 0.000938829 10
11.2187 -12.4596 -2.05862 0.000956827 10
19.6319 -21.8034 -1.53761 0.000165392 10
19.6336 -21.8053 -0.512166 0.000166293 10
19.5713 -21.7361 0.51054 0.000168091 10
13.6906 -15.2049 1.07228 3.74595e-05 10
10.9074 -12.1139 1.42614 0.000822071 10
10.9067 -12.1131 2.00136 0.000810432 10
10.9094 -12.1161 2.58228 0.000795137 10
10.9054 -12.1117 3.168 0.000776349 10
10.9032 -12.1092 3.76189 0.000754271 10
10.9089 -12.1155 4.36839 0.000729137 10
6.34106 -6.99321 -2.52945 0.000439917 4
7.89148 -8.70309 -2.71228 0.000312521 1
9.38398 -10.3491 -2.71551 0.00017076 1
11.3025 -12.4649 -2.665 0.000927625 10
11.2912 -12.4524 -2.06392 0.00094542 10
19.7049 -21.7314 -1.53738 0.000164875 10
19.7084 -21.7353 -0.512134 0.000165772 10
19.711 -21.7382 0.512202 0.000165754 10
13.7558 -15.1705 1.07323 3.74404e-05 10
10.9734 -12.102 1.42924 0.000812341 10
10.9757 -12.1045 2.00625 0.000800832 10
10.9783 -12.1074 2.58857 0.000785707 10
10.9703 -12.0985 3.17454 0.000767129 10
10.9827 -12.1122 3.77472 0.000745298 10
10.9779 -12.107 4.37909 0.000720446 10
6.3669 -6.97265 -2.53003 0.000620448 4
7.9379 -8.69312 -2.71779 0.000312552 1
9.40772 -10.3028 -2.71195 0.000170781 1
11.374 -12.4562 -2.67161 0.00091647 10
11.3794 -12.4621 -2.0721 0.000934064 10
19.8294 -21.716 -1.54117 0.000162564 10
19.8334 -21.7204 -0.513411 0.00016345 10
19.8399 -21.7274 0.513577 0.000163432 10
13.8117 -15.1257 1.07346 3.74214e-05 10
11.0622 -12.1147 1.43529 0.000802653 10
11.0532 -12.1048 2.0127 0.000791272 10
11.0529 -12.1044 2.59617 0.000776318 10
11.0441 -12.0948 3.18366 0.000757949 10
11.0463 -12.0972 3.78203 0.000736364 10
11.0456 -12.0965 4.38922 0.000711792 10
6.38133 -6.93964 -2.52612 0.000549048 4
7.95405 -8.64997 -2.71296 0.000312583 1
9.44769 -10.2743 -2.71312 0.000170802 1
11.4642 -12.4672 -2.68254 0.000905364 10
11.4507 -12.4526 -2.07715 0.000922756 10
19.9697 -21.7169 -1.54617 0.000160267 10
19.9723 -21.7198 -0.51504 0.000161141 10
19.9695 -21.7166 0.514966 0.000161123 10
13.8667 -15.08 1.07365 3.74024e-05 10
11.1355 -12.1097 1.4393 0.000793005 10
11.1335 -12.1076 2.01961 0.000781754 10
11.1387 -12.1133 2.60639 0.000766969 10
11.133 -12.107 3.19709 0.000748809 10
11.1354 -12.1097 3.79806 0.000727468 10
11.1226 -12.0957 4.403 0.000703176 10
6.4134 -6.92584 -2.52923 0.000372331 4
7.98586 -8.62395 -2.71353 0.000312615 1
9.48713 -10.2452 -2.71416 0.000170823 1
11.5377 -12.4596 -2.68956 0.000894306 10
11.5267 -12.4477 -2.08304 0.000911499 10
29.0189 -31.3375 -2.23833 3.80699e-05 10
13.9136 -15.0253 1.07321 3.73835e-05 10
11.2007 -12.0957 1.44226 0.000783401 10
11.2168 -12.1131 2.02704 0.000772278 10
11.2158 -12.112 2.61451 0.000757661 10
11.2096 -12.1053 3.20694 0.000739708 10
11.2148 -12.1109 3.81069 0.000718612 10
11.1989 -12.0937 4.41647 0.000694599 10
6.42683 -6.89194 -2.52503 0.000447587 4
8.01409 -8.59406 -2.71291 0.000312646 1
9.52658 -10.216 -2.71523 0.000170843 1
11.615 -12.4555 -2.69741 0.000883301 10
11.6217 -12.4628 -2.09233 0.000900294 10
29.228 -31.3432 -2.24601 3.74412e-05 10
13.9711 -14.9822 1.0736 3.73646e-05 10
11.2875 -12.1044 1.44799 0.000773839 10
11.2941 -12.1114 2.03334 0.000762844 10
11.2832 -12.0998 2.62036 0.000748396 10
11.2761 -12.0921 3.21387 0.000730649 10
11.2826 -12.0991 3.81934 0.000709797 10
11.2901 -12.1071 4.43575 0.00068606 10
6.45941 -6.87858 -2.52838 0.000500286 4
8.04899 -8.57131 -2.71458 0.000312677 1
9.54363 -10.1629 -2.70996 0.000170864 1
11.6882 -12.4467 -2.70431 0.000872345 10
11.6945 -12.4534 -2.0976 0.00088914 10
29.4231 -31.3325 -2.25259 3.68176e-05 10
14.0089 -14.918 1.0725 3.73457e-05 10
11.3561 -12.093 1.45136 0.000764322 10
11.3655 -12.1031 2.03859 0.000753454 10
11.3598 -12.097 2.62833 0.000739173 10
11.3604 -12.0976 3.22583 0.000721632 10
11.3711 -12.109 3.83498 0.000701022 10
11.3596 -12.0968 4.44644 0.000677562 10
6.47962 -6.85201 -2.52691 0.000462709 4
8.08694 -8.5517 -2.71729 0.000312708 1
9.5912 -10.1424 -2.71339 0.000170885 1
11.7479 -12.4231 -2.70809 8.02753e-05 1
11.7858 -12.4631 -2.10615 0.00087804 10
29.6257 -31.3283 -2.25971 3.61993e-05 10
14.0674 -14.8759 1.073 3.73269e-05 10
11.4517 -12.1098 1.45818 0.000754849 10
11.4389 -12.0963 2.04417 0.000744108 10
11.4359 -12.0931 2.63616 0.000729993 10
11.4485 -12.1064 3.23883 0.000712658 10
11.4453 -12.1031 3.84573 0.000692289 10
11.4389 -12.0963 4.46094 0.000669104 10
6.50033 -6.82602 -2.52568 0.00057185 4
8.11664 -8.52331 -2.71726 0.000312739 1
9.63178 -10.1144 -2.71487 0.000170906 1
11.7964 -12.3874 -2.70927 8.02878e-05 1
11.8693 -12.464 -2.11329 0.000866994 10
29.8469 -31.3424 -2.26822 3.55863e-05 10
14.1214 -14.8289 1.07316 3.73081e-05 10
11.519 -12.0962 1.46136 0.000745421 10
11.5168 -12.0938 2.05053 0.000734807 10
11.5294 -12.1071 2.64795 0.000720858 10
11.5303 -12.108 3.24999 0.000703726 10
11.5182 -12.0953 3.85601 0.000683598 10
11.5216 -12.0988 4.47666 0.000660687 10
6.53686 -6.81657 -2.53061 0.000541798 4
8.13431 -8.48238 -2.71324 0.00031277 1
9.66524 -10.0788 -2.71437 0.000170927 1
11.8477 -12.3547 -2.71113 8.03002e-05 1
11.9469 -12.4581 -2.11935 0.000856002 10
19.8557 -20.7053 -2.50981 0.000160882 10
30.0396 -31.325 -2.27454 3.49787e-05 10
14.1813 -14.7881 1.07378 3.72894e-05 10
11.595 -12.0912 1.46564 0.000736039 10
11.6059 -12.1025 2.05885 0.00072555 10
11.6086 -12.1054 2.65643 0.000711767 10
11.6097 -12.1065 3.26045 0.000694839 10
11.6108 -12.1076 3.87285 0.000674949 10
11.5958 -12.092 4.48907 0.000652311 10
6.54828 -6.78094 -2.52585 0.000470349 4
8.15832 -8.44819 -2.7114 0.000312801 1
9.69059 -10.0349 -2.71164 0.000170947 1
11.8857 -12.308 -2.70997 8.03127e-05 1
12.0197 -12.4467 -2.12454 0.000845066 10
19.8551 -20.5605 -2.50065 0.000163597 10
30.2631 -31.3383 -2.28317 3.43764e-05 10
14.2416 -14.7477 1.07445 3.72707e-05 10
11.6895 -12.1048 1.47223 0.000726705 10
11.6902 -12.1056 2.06631 0.000716341 10
11.6756 -12.0905 2.66209 0.000702722 10
11.6818 -12.0968 3.26881 0.000685997 10
11.679 -12.0939 3.88148 0.000666345 10
11.6812 -12.0962 4.50575 0.000643979 10
6.5716 -6.75773 -2.52574 0.000564465 4
8.20642 -8.43885 -2.71758 0.000312832 1
9.72447 -9.99989 -2.71133 0.000170968 1
11.9142 -12.2516 -2.7067 8.03251e-05 1
12.1177 -12.4609 -2.13416 0.000834186 10
19.8547 -20.4171 -2.49161 0.000166335 10
19.8511 -20.4134 -1.49226 0.000111133 10
19.8661 -20.4288 -0.497393 0.000111796 10
19.8616 -20.4241 0.497278 0.000111847 10
14.2935 -14.6984 1.07448 3.72521e-05 10
11.7703 -12.1036 1.47707 0.000717416 10
11.7561 -12.0891 2.07048 0.000707177 10
11.7537 -12.0866 2.67025 0.000693722 10
11.761 -12.0941 3.27915 0.000677198 10
11.7712 -12.1046 3.89808 0.000657784 10
11.7625 -12.0957 4.52083 0.000635688 10
6.60557 -6.74539 -2.52973 0.000511824 4
8.23539 -8.4097 -2.71743 0.000312863 1
9.76969 -9.97648 -2.71421 0.000170989 1
11.9716 -12.225 -2.71005 8.03375e-05 1
12.1859 -12.4439 -2.13852 0.000823363 10
19.8668 -20.2873 -2.48422 0.000169096 10
19.9569 -20.3793 -1.49486 0.000116049 10
19.9501 -20.3724 -0.497712 0.000116675 10
19.9443 -20.3664 0.497566 0.000116662 10
14.3291 -14.6324 1.07331 3.72335e-05 10
11.8373 -12.0878 1.48018 0.000708176 10
11.8469 -12.0977 2.07903 0.000698061 10
11.8358 -12.0864 2.67931 0.000684769 10
11.8394 -12.09 3.28922 0.000668446 10
11.8526 -12.1035 3.91102 0.000649267 10
11.8521 -12.1029 4.53897 0.000627441 10
6.62442 -6.71757 -2.52795 0.000496811 4
8.24572 -8.36167 -2.7112 0.000312894 1
9.79016 -9.92782 -2.71026 0.000171009 1
12.0044 -12.1731 -2.70782 8.03499e-05 1
12.2708 -12.4434 -2.14579 0.000812597 10
19.8517 -20.1308 -2.47353 0.00017188 10
19.8629 -20.1422 -1.48254 0.000114834 10
19.8526 -20.1318 -0.493523 0.000115516 10
19.8485 -20.1276 0.493421 0.000115569 10
14.4002 -14.6027 1.07481 3.72149e-05 10
11.9209 -12.0885 1.48535 0.000698985 10
11.9222 -12.0898 2.08482 0.000688992 10
11.9267 -12.0944 2.6903 0.000675863 10
11.9271 -12.0948 3.30184 0.000659739 10
11.9341 -12.102 3.92395 0.000640796 10
11.9221 -12.0897 4.54959 0.000619237 10
6.64624 -6.69281 -2.52735 0.00056084 4
8.27417 -8.33214 -2.71097 0.000312925 1
9.8339 -9.90279 -2.71278 0.00017103 1
12.0569 -12.1414 -2.7101 8.03623e-05 1
12.3668 -12.4535 -2.15495 0.000801889 10
19.8529 -19.992 -2.46498 0.000174686 10
19.9624 -20.1022 -1.48472 0.000117905 10
19.9712 -20.1112 -0.494724 0.000118538 10
19.9688 -20.1087 0.494662 0.000118525 10
14.4411 -14.5422 1.07407 3.71964e-05 10
12.017 -12.1012 1.49205 0.000689842 10
12.0193 -12.1035 2.0944 0.000679973 10
12.0067 -12.0908 2.69881 0.000667005 10
12.0101 -12.0942 3.3131 0.00065108 10
12.0078 -12.092 3.93428 0.000632371 10
12.0076 -12.0917 4.56609 0.000611078 10
6.66461 -6.66461 -2.52547 0.000534536 4
8.31651 -8.31651 -2.71532 0.000312956 1
9.86151 -9.86152 -2.71088 0.00017105 1
12.0937 -12.0937 -2.70887 8.03746e-05 1
12.452 -12.452 -2.16221 0.00079124 10
19.859 -19.859 -2.45711 0.000177514 10
19.8611 -19.8611 -1.47202 0.000118595 10
19.8543 -19.8543 -0.490107 0.000119298 10
19.8496 -19.8496 0.48999 0.000119351 10
14.4994 -14.4994 1.07463 3.71779e-05 10
12.0859 -12.086 1.49537 0.000680749 10
12.1028 -12.1028 2.10157 0.000671002 10
12.1008 -12.1008 2.71045 0.000658196 10
12.0935 -12.0935 3.32445 0.000642468 10
12.0903 -12.0903 3.94746 0.000623991 10
12.1043 -12.1043 4.58677 0.000602964 10
6.69037 -6.64382 -2.52643 0.000568461 4
8.33944 -8.28142 -2.71335 0.000312986 1
9.90469 -9.83578 -2.7133 0.000171071 1
12.1265 -12.0421 -2.70677 8.03869e-05 1
12.5289 -12.4417 -2.16801 0.000780652 10
19.8543 -19.7161 -2.44799 0.000180365 10
19.964 -19.8251 -1.47451 0.000119805 10
19.9718 -19.8328 -0.491295 0.000120447 10
19.9803 -19.8413 0.491504 0.000120434 10
14.5425 -14.4413 1.07409 3.71595e-05 10
12.18 -12.0953 1.50178 0.000671706 10
12.1709 -12.0862 2.10606 0.000662081 10
12.1725 -12.0879 2.71705 0.000649434 10
12.182 -12.0973 3.33716 0.000633904 10
12.1803 -12.0956 3.96303 0.000615659 10
12.179 -12.0943 4.59906 0.000594896 10
6.72338 -6.63015 -2.53014 0.000542153 4
8.37343 -8.25733 -2.71501 0.000313017 1
9.93378 -9.79604 -2.71188 0.000171091 1
12.1853 -12.0163 -2.71051 8.03992e-05 1
12.625 -12.4499 -2.1771 0.000770124 10
19.8551 -19.5798 -2.43965 0.000183238 10
19.8556 -19.5803 -1.46145 0.000122415 10
19.8485 -19.5732 -0.486578 0.000123138 10
19.8524 -19.5771 0.486673 0.000123193 10
14.6094 -14.4068 1.07531 3.71411e-05 10
12.2596 -12.0896 1.50637 0.000662715 10
12.261 -12.091 2.11434 0.00065321 10
12.2564 -12.0865 2.72634 0.000640723 10
12.2603 -12.0903 3.34701 0.000625388 10
12.2575 -12.0875 3.97438 0.000607374 10
12.2639 -12.0939 4.61515 0.000586874 10
6.74275 -6.60299 -2.52874 0.000549728 4
8.40274 -8.22857 -2.71518 0.000313047 1
9.97325 -9.76653 -2.71333 0.000171112 1
12.2086 -11.9556 -2.70641 8.04115e-05 1
12.7034 -12.4401 -2.18312 0.000759657 10
19.8496 -19.4382 -2.43063 0.000186133 10
19.9788 -19.5647 -1.46548 0.000121752 10
19.9875 -19.5732 -0.488309 0.000122403 10
19.9892 -19.5749 0.48835 0.000122389 10
14.6432 -14.3396 1.0741 3.71227e-05 10
12.3357 -12.08 1.51053 0.000653774 10
12.348 -12.0921 2.12205 0.00064439 10
12.3515 -12.0955 2.73809 0.000632062 10
12.3368 -12.0811 3.35637 0.000616922 10
12.3443 -12.0885 3.98884 0.000599136 10
12.3525 -12.0964 4.63255 0.000578898 10
6.76302 -6.57676 -2.52772 0.000425508 4
8.43167 -8.19944 -2.71527 0.000313078 1
9.99985 -9.72444 -2.71132 0.000171132 1
12.2522 -11.9148 -2.70684 8.04237e-05 1
12.7968 -12.4444 -2.1917 0.000749252 10
12.9364 -12.5801 -1.57871 0.000489318 10
12.9306 -12.5744 -0.945254 0.000494252 10
12.9235 -12.5675 -0.314656 0.000496831 10
12.9189 -12.5631 0.314545 0.000497024 10
12.9194 -12.5636 0.944441 0.000494831 10
12.4334 -12.091 1.51732 0.000644887 10
12.4344 -12.0919 2.12962 0.000635622 10
12.4294 -12.087 2.74598 0.000623451 10
12.4292 -12.0868 3.36999 0.000608506 10
12.4292 -12.0869 4.00261 0.000590948 10
12.4373 -12.0948 4.64851 0.00057097 10
6.78902 -6.55608 -2.52886 0.000444372 4
8.44776 -8.15791 -2.71126 0.000313108 1
10.0285 -9.68446 -2.70992 0.000171152 1
12.2964 -11.8745 -2.70742 8.04359e-05 1
12.8808 -12.4388 -2.19863 0.000738909 10
12.9244 -12.4809 -1.57191 0.00049605 10
12.9299 -12.4863 -0.942017 0.000501048 10
12.9192 -12.4759 -0.31349 0.000503658 10
12.9206 -12.4773 0.313524 0.000503854 10
12.9334 -12.4896 0.942268 0.000501631 10
12.5204 -12.0908 1.52277 0.000636051 10
12.5177 -12.0882 2.13665 0.000626906 10
12.5259 -12.0961 2.75795 0.000614892 10
12.5118 -12.0825 3.38093 0.000600139 10
12.5207 -12.0911 4.01845 0.000582809 10
12.5103 -12.0811 4.66001 0.000563089 10
6.80221 -6.52309 -2.52528 0.000391682 4
8.47759 -8.12972 -2.71171 0.000313138 1
10.0581 -9.64538 -2.70879 0.000171173 1
12.3295 -11.8235 -2.7056 8.04481e-05 1
12.9765 -12.444 -2.20754 0.000728629 10
12.9809 -12.4482 -1.57349 0.000488254 10
12.9689 -12.4367 -0.941683 0.000492931 10
12.9666 -12.4346 -0.313585 0.000495257 10
12.9744 -12.442 0.313773 0.000495207 10
12.9681 -12.436 0.94163 0.000492781 10
12.6018 -12.0847 1.52753 0.000627268 10
12.5983 -12.0814 2.1432 0.000618242 10
12.6087 -12.0913 2.76688 0.000606384 10
12.5969 -12.08 3.39252 0.000591823 10
12.5995 -12.0825 4.03019 0.000574718 10
12.6055 -12.0883 4.67974 0.000555256 10
6.83633 -6.51015 -2.52949 0.000606402 4
8.51685 -8.11049 -2.7152 0.000313169 1
10.1111 -9.62865 -2.71399 0.000171193 1
12.3703 -11.7801 -2.70552 8.04603e-05 1
13.0666 -12.4432 -2.21547 0.000718414 10
13.1942 -12.5647 -1.59402 0.000479153 10
13.2005 -12.5707 -0.95531 0.000483995 10
13.2067 -12.5766 -0.318327 0.000486525 10
13.1945 -12.5649 0.318032 0.000486713 10
13.1895 -12.5602 0.954515 0.000484557 10
12.7004 -12.0945 1.53437 0.00061854 10
12.6925 -12.0869 2.15204 0.000609632 10
12.6934 -12.0878 2.77619 0.000597929 10
12.6912 -12.0857 3.40654 0.000583558 10
12.6841 -12.0789 4.04372 0.000566678 10
12.6834 -12.0782 4.69295 0.000547471 10
6.84085 -6.46907 -2.5228 0.000591384 4
8.53942 -8.07533 -2.71339 0.000313199 1
10.1392 -9.58817 -2.71254 0.000171213 1
12.426 -11.7507 -2.70871 8.04724e-05 1
13.1631 -12.4477 -2.22445 0.000708262 10
13.1976 -12.4803 -1.58915 0.000485624 10
13.1918 -12.4749 -0.951525 0.000490527 10
13.1882 -12.4715 -0.316832 0.000493088 10
13.1923 -12.4753 0.316928 0.000493278 10
13.1994 -12.4821 0.952075 0.000491095 10
12.7824 -12.0878 1.53917 0.000609865 10
12.7767 -12.0823 2.15914 0.000601075 10
12.7883 -12.0933 2.78769 0.000589526 10
12.7894 -12.0943 3.42154 0.000575345 10
12.7755 -12.0811 4.05938 0.000558688 10
12.7782 -12.0837 4.7124 0.000539736 10
6.87242 -6.45364 -2.52612 0.000474652 4
8.56896 -8.04679 -2.71384 0.000313229 1
10.1749 -9.55491 -2.71316 0.000171233 1
12.4724 -11.7124 -2.70991 8.04845e-05 1
13.2379 -12.4312 -2.22974 0.000698176 10
13.2391 -12.4323 -1.58892 0.000467864 10
13.2546 -12.4469 -0.952915 0.000472357 10
13.2558 -12.448 -0.317407 0.000474591 10
13.2439 -12.4369 0.317124 0.000474543 10
13.2558 -12.4481 0.953002 0.000472212 10
12.8695 -12.0853 1.54456 0.000601246 10
12.865 -12.0811 2.16693 0.000592572 10
12.8656 -12.0816 2.79534 0.000581176 10
12.8613 -12.0776 3.42948 0.000567184 10
12.8628 -12.079 4.07373 0.00055075 10
12.8632 -12.0794 4.72818 0.000532051 10
6.88832 -6.42346 -2.5237 0.000493527 4
8.59471 -8.01469 -2.71311 0.000313259 1
10.2049 -9.51622 -2.71227 0.000171254 1
12.5081 -11.664 -2.70879 8.04967e-05 1
13.3403 -12.44 -2.23965 0.000688155 10
13.4654 -12.5566 -1.6108 0.000469347 10
13.4726 -12.5634 -0.965427 0.0004741 10
13.4623 -12.5538 -0.321303 0.000476582 10
13.4574 -12.5492 0.321185 0.000476765 10
13.4696 -12.5606 0.965215 0.000474647 10
12.954 -12.0798 1.54963 0.000592682 10
12.9497 -12.0757 2.17407 0.000584123 10
12.9611 -12.0864 2.80689 0.000572881 10
12.9545 -12.0802 3.44306 0.000559076 10
12.9596 -12.085 4.09097 0.000542862 10
12.9578 -12.0833 4.7474 0.000524414 10
6.92523 -6.41283 -2.52901 0.000508637 4
8.61901 -7.98129 -2.71197 0.000313289 1
10.2223 -9.46595 -2.7081 0.000171274 1
12.5445 -11.6163 -2.70787 8.05087e-05 1
13.4265 -12.4331 -2.24683 0.000678201 10
13.4785 -12.4813 -1.60716 0.000475569 10
13.4601 -12.4642 -0.961408 0.000480381 10
13.4625 -12.4664 -0.320265 0.000482893 10
13.4617 -12.4657 0.320247 0.000483078 10
13.4707 -12.474 0.962162 0.000480932 10
13.0583 -12.0921 1.55705 0.000584174 10
13.0585 -12.0923 2.18525 0.00057573 10
13.0422 -12.0772 2.81531 0.000564639 10
13.0517 -12.086 3.45768 0.000551022 10
13.0516 -12.0859 4.10668 0.000535027 10
13.0575 -12.0913 4.76843 0.00051683 10
6.93828 -6.38008 -2.52563 0.000538821 4
8.66029 -7.96355 -2.7162 0.000313319 1
10.2617 -9.43612 -2.70979 0.000171294 1
12.5783 -11.5664 -2.70645 8.05208e-05 1
13.5185 -12.4309 -2.25496 0.000668314 10
13.5229 -12.4349 -1.60726 0.00044787 10
13.5216 -12.4338 -0.962695 0.000452181 10
13.5282 -12.4398 -0.320794 0.000454326 10
13.528 -12.4396 0.320789 0.000454279 10
13.5252 -12.4371 0.962952 0.000452041 10
13.1332 -12.0766 1.56094 0.000575722 10
13.1367 -12.0799 2.19127 0.000567394 10
13.1386 -12.0816 2.827 0.000556453 10
13.143 -12.0856 3.47064 0.000543021 10
13.1377 -12.0807 4.12049 0.000527244 10
13.1317 -12.0752 4.78012 0.000509295 10
6.96984 -6.36434 -2.52901 0.000471035 4
8.08305 -7.38084 -2.52706 0.00026631 4
10.2885 -9.39472 -2.7082 0.000171314 1
12.6305 -11.5332 -2.709 8.05328e-05 1
13.6115 -12.429 -2.26321 0.000658493 10
13.7278 -12.5352 -1.6264 8.47176e-05 10
13.7345 -12.5413 -0.974729 0.00046454 10
13.731 -12.5382 -0.324564 0.000466976 10
13.735 -12.5418 0.324658 0.000467154 10
13.7459 -12.5517 0.975537 0.000465071 10
13.2252 -12.0763 1.56686 0.000567327 10
13.2211 -12.0725 2.1983 0.000559112 10
13.2274 -12.0783 2.83703 0.000548322 10
13.2197 -12.0712 3.47975 0.000535074 10
13.2314 -12.0819 4.13662 0.000519514 10
13.2246 -12.0757 4.79854 0.000501813 10
6.98032 -6.32937 -2.52478 0.000489915 4
8.09827 -7.34307 -2.52379 0.000346695 4
10.3244 -9.36158 -2.70902 0.000171334 1
12.6667 -11.4854 -2.70814 8.05448e-05 1
13.7218 -12.4422 -2.27432 0.000648741 10
13.7348 -12.4539 -1.62207 0.000465857 10
13.7278 -12.4476 -0.971168 0.000470581 10
13.7394 -12.4582 -0.323733 0.000473046 10
13.7281 -12.4479 0.323465 0.000473225 10
13.7375 -12.4564 0.971854 0.000471117 10
13.3319 -12.0886 1.57449 0.000558989 10
13.3144 -12.0727 2.20679 0.000550888 10
13.3208 -12.0786 2.84801 0.000540247 10
13.3218 -12.0794 3.49551 0.000527182 10
13.3145 -12.0729 4.14941 0.000511838 10
13.328 -12.0851 4.82074 0.000494381 10
7.00384 -6.30629 -2.52531 0.000448497 4
8.1245 -7.31533 -2.52399 0.000273249 4
10.3656 -9.33326 -2.71128 0.000171353 1
12.6911 -11.4271 -2.70482 8.05567e-05 1
13.8168 -12.4407 -2.28285 0.000639057 10
13.8173 -12.4412 -1.62668 0.00042828 10
13.8081 -12.4329 -0.973772 0.000432414 10
13.8024 -12.4277 -0.324192 0.00043447 10
13.8007 -12.4262 0.324153 0.000434424 10
13.8171 -12.441 0.974406 0.000432278 10
13.4236 -12.0867 1.58033 0.000550709 10
13.4123 -12.0765 2.21602 0.000542721 10
13.4193 -12.0828 2.86003 0.000532227 10
13.4191 -12.0826 3.50997 0.000519344 10
13.4119 -12.0762 4.1666 0.000504214 10
13.4099 -12.0743 4.83508 0.000487002 10
7.02984 -6.2854 -2.52676 0.000538992 4
8.14082 -7.27874 -2.52115 0.000252606 4
10.3841 -9.2845 -2.70763 0.000171373 1
12.7442 -11.3946 -2.70764 8.05687e-05 1
13.9071 -12.4344 -2.29059 0.000629443 10
13.9025 -12.4302 -1.63159 0.000638646 10
14.003 -12.5201 -0.984426 0.00045529 10
14.0031 -12.5202 -0.327878 0.000457682 10
14.0171 -12.5327 0.328205 0.000457855 10
13.9955 -12.5135 0.983902 0.000455807 10
13.5158 -12.0845 1.58621 0.000542488 10
13.5102 -12.0795 2.22522 0.000534611 10
13.5145 -12.0834 2.8713 0.000524265 10
13.5191 -12.0875 3.52506 0.000511563 10
13.5104 -12.0797 4.18407 0.000496646 10
13.5061 -12.0759 4.85456 0.000479676 10
7.04712 -6.25673 -2.52511 0.000380717 4
8.17302 -7.25635 -2.52326 0.000277893 4
10.4326 -9.26246 -2.71181 0.000171393 1
12.7853 -11.3513 -2.70793 8.05806e-05 1
14.0037 -12.433 -2.29933 0.000619898 10
14.007 -12.436 -1.63875 0.00062897 10
14.0047 -12.434 -0.981491 0.000461101 10
14.0128 -12.4412 -0.327087 0.000463521 10
14.0128 -12.4412 0.327087 0.000463695 10
14 -12.4297 0.981156 0.000461622 10
13.5939 -12.0692 1.59042 0.000534325 10
13.5988 -12.0736 2.23286 0.000526559 10
13.5919 -12.0674 2.87877 0.000516359 10
13.6049 -12.079 3.53643 0.000503837 10
13.5977 -12.0726 4.19801 0.000489131 10
13.6081 -12.0818 4.87602 0.000472403 10
7.07475 -6.23723 -2.52719 0.000508919 4
8.2069 -7.23536 -2.52591 0.000266435 4
10.456 -9.21819 -2.70951 0.000171413 1
12.8215 -11.3037 -2.70724 8.05925e-05 1
14.0976 -12.4287 -2.30761 0.000610423 10
14.1056 -12.4358 -1.6452 0.000619365 10
14.1024 -12.433 -0.98529 0.000413066 10
14.2891 -12.5975 -0.332507 0.000443085 10
14.2708 -12.5814 0.332081 0.000443252 10
14.2826 -12.5918 0.997877 0.000441262 10
13.6916 -12.0708 1.59691 0.000526221 10
13.6882 -12.0678 2.2406 0.000518566 10
13.6952 -12.0739 2.89172 0.000508511 10
13.7041 -12.0818 3.55122 0.000496168 10
13.7074 -12.0847 4.21886 0.000481672 10
13.705 -12.0826 4.89559 0.000465183 10
7.09698 -6.21293 -2.52737 0.000392087 4
8.23132 -7.20598 -2.52567 0.000333074 4
10.4821 -9.17637 -2.70796 0.000171433 1
12.8505 -11.2498 -2.70505 8.06044e-05 1
14.2023 -12.4331 -2.31763 0.000601019 10
14.1861 -12.419 -1.64952 0.000609831 10
14.2888 -12.5089 -0.995258 0.000446328 10
14.2765 -12.4982 -0.331197 0.000448677 10
14.2717 -12.4939 0.331084 0.000448846 10
14.28 -12.5012 0.994643 0.000446831 10
13.7835 -12.0665 1.6027 0.000518177 10
13.7928 -12.0747 2.25082 0.000510632 10
13.7909 -12.073 2.903 0.000500721 10
13.8026 -12.0832 3.56578 0.000488555 10
13.7911 -12.0732 4.23162 0.000474268 10
13.8039 -12.0844 4.91581 0.000458017 10
7.11832 -6.18786 -2.52726 0.000512769 4
8.25963 -7.17999 -2.52665 0.0003377 4
10.5185 -9.14358 -2.7091 0.000171452 1
12.8905 -11.2055 -2.70522 8.06162e-05 1
14.3009 -12.4316 -2.32663 0.000591685 10
14.2967 -12.4279 -1.65733 0.00060037 10
14.2945 -12.4261 -0.992627 0.000400405 10
14.2885 -12.4208 -0.330467 0.000402317 10
14.299 -12.43 0.330711 0.000402274 10
14.2911 -12.423 0.992387 0.000400275 10
13.8864 -12.0713 1.60977 0.000510193 10
13.882 -12.0675 2.25848 0.000502757 10
13.8822 -12.0677 2.91335 0.000492989 10
13.8997 -12.0829 3.57997 0.000481 10
13.8833 -12.0685 4.24694 0.00046692 10
13.8878 -12.0725 4.93068 0.000450905 10
7.12883 -6.15345 -2.52335 0.000678718 4
8.26796 -7.13672 -2.52156 0.000314756 4
10.5595 -9.11471 -2.71145 0.000171472 1
12.9295 -11.1605 -2.70521 8.0628e-05 1
14.3864 -12.418 -2.33347 0.000582424 10
14.3837 -12.4157 -1.66238 0.000590981 10
14.7388 -12.7222 -1.02039 0.00063038 10
14.7256 -12.7108 -0.339548 0.000633717 10
14.7254 -12.7106 0.339543 0.000633955 10
14.7297 -12.7144 1.01976 0.000631091 10
13.9789 -12.0663 1.6156 0.00050227 10
13.9944 -12.0796 2.26989 0.000494942 10
13.9796 -12.0668 2.92492 0.000485317 10
13.9833 -12.07 3.59061 0.000473502 10
13.9804 -12.0675 4.26373 0.000459628 10
13.9895 -12.0755 4.9518 0.000443848 10
7.14823 -6.12678 -2.52263 0.000448743 4
8.29354 -7.10843 -2.52178 0.000328571 4
10.5838 -9.07141 -2.70955 0.000171492 1
12.9798 -11.1251 -2.7076 8.06398e-05 1
14.5005 -12.4284 -2.34493 0.000573235 10
14.4858 -12.4158 -1.66916 0.000581664 10
14.7404 -12.634 -1.01744 0.000638216 10
14.727 -12.6225 -0.338562 0.000641591 10
14.7308 -12.6258 0.338649 0.000641831 10
14.7172 -12.6142 1.01584 0.000638932 10
14.5002 -12.4282 1.67082 0.000453284 10
14.5788 -12.4955 3.7323 0.000268287 10
14.4905 -12.4199 4.40606 0.000414495 10
14.5006 -12.4285 5.11729 0.000400147 10
7.18048 -6.11107 -2.52647 0.000512889 4
8.3344 -7.09313 -2.52666 0.000342389 4
10.6233 -9.04117 -2.71157 0.000171511 1
13.0229 -11.0834 -2.7085 8.06516e-05 1
14.5922 -12.4189 -2.35273 0.000564118 10
14.5993 -12.425 -1.67723 0.000572422 10
14.7376 -12.5427 -1.01422 0.000646086 10
14.7337 -12.5394 -0.337708 0.000649499 10
14.7243 -12.5314 0.337493 0.000649742 10
14.7343 -12.5399 1.01399 0.000646809 10
14.5901 -12.4172 1.67617 0.00044608 10
14.6698 -12.485 2.36525 0.000276086 10
14.6671 -12.4827 3.05046 0.00027066 10
14.6777 -12.4917 3.74644 7.77473e-05 10
14.5932 -12.4198 4.42408 0.00040787 10
14.603 -12.4281 5.1381 0.000393737 10
7.19145 -6.07725 -2.52285 0.000501614 4
8.34627 -7.05315 -2.52278 0.000289564 4
10.6567 -9.00558 -2.71204 0.000171531 1
13.0507 -11.0287 -2.70625 8.06633e-05 1
14.6878 -12.4121 -2.36114 0.000555074 10
14.6912 -12.4151 -1.6828 0.000563253 10
14.7249 -12.4435 -1.01035 0.000653991 10
14.7326 -12.45 -0.336684 0.000657443 10
14.7312 -12.4489 0.336653 0.000657687 10
14.7294 -12.4473 1.01065 0.00065472 10
14.7027 -12.4247 1.68411 0.000438933 10
14.6951 -12.4184 2.36233 0.000276076 10
14.7027 -12.4248 3.04883 0.000270652 10
14.7048 -12.4266 3.74227 0.000263996 10
14.7124 -12.433 4.44703 0.000401298 10
14.7119 -12.4325 5.16113 0.000387378 10
7.2299 -6.06661 -2.52889 0.000403585 4
8.37306 -7.02583 -2.52345 0.000294187 4
10.6776 -8.95955 -2.70939 0.00017155 1
13.0807 -10.976 -2.70452 8.0675e-05 1
14.7933 -12.4131 -2.37113 0.000546104 10
14.8081 -12.4254 -1.69121 0.000554158 10
14.7921 -12.412 -1.01198 0.000559558 10
14.8096 -12.4268 -0.337452 0.000562242 10
14.8081 -12.4255 0.337416 0.00056218 10
14.8087 -12.4259 1.01311 0.000559372 10
14.8032 -12.4213 1.69064 0.000431845 10
14.7291 -12.3592 2.36084 0.000504546 10
14.723 -12.3541 3.04407 0.00049488 10
