VERSION 0.7
FIELDS x y z intensity label
SIZE 4 4 4 4 4
TYPE F F F F F
COUNT 1 1 1 1 1
WIDTH 1169
HEIGHT 1
VIEWPOINT 11.0123 7.49929 2.75117 0.999999 1.85819e-05 0.00112097 -0.00031064
POINTS 1169
DATA ascii
-12.0786 -13.1354 0.31148 0.000219882 10
-12.0777 -13.1344 0.935128 0.000218374 10
-12.0691 -13.125 1.55997 0.000168038 10
-12.0789 -13.1357 2.1911 0.000164783 10
-12.0877 -13.1453 2.82844 0.000160554 10
-12.0838 -13.141 3.47014 0.000155412 10
-12.0874 -13.1449 4.12275 0.000149432 10
-12.0778 -13.1345 4.78114 0.000142702 10
-6.8499 -7.5016 -2.72196 0.000202474 4
-7.95474 -8.71155 -2.72355 4.185e-05 4
-9.34153 -10.2303 -2.69287 6.57634e-05 4
-12.0647 -13.2125 -2.19688 0.000208094 10
-12.1725 -13.3306 -1.57935 0.000147972 10
-12.1751 -13.3334 -0.946268 0.000149857 10
-12.1628 -13.32 -0.314848 0.000150808 10
-12.1602 -13.3171 0.31478 0.000150809 10
-12.1735 -13.3317 0.94614 0.000149861 10
-12.076 -13.2249 1.56682 0.000164766 10
-12.0712 -13.2196 2.19805 0.00016157 10
-12.0898 -13.2401 2.83974 0.000157416 10
-12.0797 -13.229 3.48221 0.000152366 10
-12.0774 -13.2265 4.13508 0.000146494 10
-12.0758 -13.2247 4.79861 0.000139885 10
-6.79449 -7.49327 -2.71032 0.00018458 4
-7.89041 -8.70191 -2.71191 3.78498e-05 4
-9.30333 -10.2601 -2.69217 6.93604e-05 4
-12.0767 -13.3188 -2.20752 0.000204006 10
-12.0753 -13.3172 -1.57275 0.000150431 10
-12.0787 -13.321 -0.942386 0.000152345 10
-12.0796 -13.3219 -0.313895 0.00015331 10
-12.0747 -13.3166 0.313769 0.000153312 10
-12.0809 -13.3233 0.942553 0.000152349 10
-12.0836 -13.3263 1.57383 0.000161531 10
-12.0742 -13.316 2.20706 0.000158392 10
-12.0728 -13.3145 2.84664 0.000154313 10
-12.0856 -13.3286 3.4973 0.000149354 10
-12.0885 -13.3317 4.15477 0.000143589 10
-12.0917 -13.3353 4.82339 0.0001371 10
-6.762 -7.50996 -2.7078 0.000487659 4
-7.82647 -8.69218 -2.70035 5.09466e-05 4
-9.27052 -10.296 -2.69306 5.74099e-05 4
-12.0703 -13.4054 -2.21489 0.000199964 10
-12.0739 -13.4095 -1.57866 0.000134538 10
-12.0762 -13.4119 -0.945832 0.000136168 10
-12.0654 -13.4 -0.314741 0.000136947 10
-12.0817 -13.4181 0.315164 0.000136864 10
-12.0682 -13.4031 0.945211 0.000135921 10
-12.0775 -13.4134 1.57913 0.000158332 10
-12.0877 -13.4247 2.21808 0.00015525 10
-12.0774 -13.4133 2.85875 0.000151245 10
-12.084 -13.4207 3.51037 0.000146377 10
-12.0915 -13.4289 4.17189 0.000140717 10
-12.0907 -13.4281 4.84165 0.000134348 10
-6.7071 -7.50148 -2.69629 0.000109058 4
-9.23387 -10.3275 -2.69286 4.26649e-05 4
-12.0685 -13.4979 -2.22318 0.000195968 10
-12.1586 -13.5986 -1.59592 0.000142882 10
-12.1654 -13.6063 -0.956536 0.000144711 10
-12.1666 -13.6076 -0.318617 0.000145633 10
-12.1636 -13.6043 0.318539 0.000145635 10
-12.157 -13.5968 0.955871 0.000144715 10
-12.085 -13.5163 1.58627 0.00015517 10
-12.0829 -13.5139 2.22583 0.000152144 10
-12.074 -13.5041 2.86909 0.000148212 10
-12.088 -13.5197 3.5252 0.000143434 10
-12.079 -13.5096 4.18382 0.000137878 10
-12.0842 -13.5154 4.8579 0.000131627 10
-6.6572 -7.49819 -2.68673 0.000227317 4
-7.74261 -8.72071 -2.69235 2.89278e-05 4
-9.20908 -10.3724 -2.69618 7.61699e-05 4
-12.0638 -13.5878 -2.23105 0.000192018 10
-12.0757 -13.6012 -1.59127 0.000145217 10
-12.0673 -13.5917 -0.952547 0.000147074 10
-12.0665 -13.5909 -0.317238 0.000131519 10
-12.0799 -13.6059 0.317587 0.000131439 10
-12.0826 -13.6089 0.953752 0.000130529 10
-12.084 -13.6105 1.59236 0.000152044 10
-12.0867 -13.6136 2.23527 0.000149074 10
-12.0895 -13.6167 2.88403 0.000145215 10
-12.0851 -13.6117 3.53819 0.000140525 10
-12.0843 -13.6108 4.20208 0.000135072 10
-12.093 -13.6207 4.88053 0.000128938 10
-6.63963 -7.53119 -2.69023 0.000161847 4
-7.70305 -8.7374 -2.68918 0.00014806 4
-9.17096 -10.4024 -2.69563 6.46142e-05 4
-12.0598 -13.6791 -2.23911 0.000188114 10
-12.2323 -13.8748 -1.61828 0.00013582 10
-12.219 -13.8597 -0.96833 0.000137569 10
-12.2322 -13.8747 -0.322863 0.000138451 10
-12.2169 -13.8574 0.322461 0.000138452 10
-12.2313 -13.8737 0.969308 0.000137573 10
-12.0738 -13.695 1.5973 0.000148955 10
-12.0885 -13.7117 2.24446 0.000146039 10
-12.09 -13.7134 2.89555 0.000142252 10
-12.0746 -13.6959 3.5491 0.00013765 10
-12.0779 -13.6997 4.21646 0.0001323 10
-12.0902 -13.7136 4.89869 0.000126281 10
-6.6032 -7.54277 -2.68612 0.000139862 4
-7.66847 -8.75962 -2.68777 0.000180415 4
-8.74215 -9.98608 -2.57982 6.21154e-05 4
-12.0646 -13.7812 -2.24892 0.000184257 10
-12.1371 -13.8641 -1.61207 0.000138021 10
-12.1399 -13.8673 -0.965895 0.000139796 10
-12.1372 -13.8642 -0.321632 0.000140691 10
-12.1473 -13.8757 0.321898 0.000140692 10
-12.1329 -13.8593 0.965336 0.0001398 10
-12.0732 -13.7911 1.60359 0.000145902 10
-12.0871 -13.8069 2.25312 0.000143041 10
-12.081 -13.8 2.90492 0.000139326 10
-12.0841 -13.8035 3.56603 0.00013481 10
-12.083 -13.8023 4.23505 0.000129561 10
-12.0799 -13.7988 4.914 0.000123657 10
-6.58719 -7.5777 -2.69036 5.97219e-05 4
-7.6399 -8.78869 -2.68849 0.000163414 4
-8.71256 -10.0227 -2.5814 6.72624e-05 4
-12.0753 -13.891 -2.25994 0.000180445 10
-12.07 -13.885 -1.6096 0.000121423 10
-12.0811 -13.8978 -0.965074 0.000122905 10
-12.0743 -13.8899 -0.321248 0.000123613 10
-12.0804 -13.8969 0.321411 0.000123536 10
-12.0765 -13.8924 0.964704 0.000122675 10
-12.0862 -13.9036 1.61175 0.000142886 10
-12.0776 -13.8937 2.26038 0.000140079 10
-12.0896 -13.9074 2.91863 0.000136434 10
-12.0746 -13.8902 3.57752 0.000132004 10
-12.0818 -13.8985 4.25161 0.000126856 10
-12.0784 -13.8947 4.93311 0.000121064 10
-6.55023 -7.58851 -2.68606 0.000135173 4
-7.60852 -8.81455 -2.68826 0.00016854 4
-8.67022 -10.0445 -2.57923 6.40019e-05 4
-10.6706 -12.362 -2.58648 2.97835e-05 4
-12.07 -13.9833 -2.26808 0.00017668 10
-12.1943 -14.1272 -1.63273 0.000131281 10
-12.2002 -14.1341 -0.978524 0.000132979 10
-12.2112 -14.1468 -0.326203 0.000133835 10
-12.2079 -14.1429 0.326113 0.000133836 10
-12.196 -14.1292 0.978181 0.000132983 10
-12.0272 -13.9336 1.61036 0.00016515 10
-12.0169 -13.9218 2.25811 0.00016201 10
-12.0243 -13.9303 2.9146 0.000157898 10
-12.0271 -13.9335 3.57783 0.000152874 10
-12.0885 -14.0046 4.27112 0.000124183 10
-12.0182 -13.9232 4.92832 0.000140399 10
-6.52483 -7.61265 -2.68653 6.75929e-05 4
-7.57557 -8.83856 -2.6875 0.000171114 4
-8.64061 -10.0812 -2.58087 6.26095e-05 4
-12.0662 -14.0779 -2.27658 0.000172962 10
-12.1155 -14.1354 -1.62879 0.000133373 10
-12.12 -14.1406 -0.976039 0.000135096 10
-12.1264 -14.1481 -0.325253 0.000135964 10
-12.1114 -14.1306 0.324852 0.000135966 10
-12.1234 -14.1446 0.976314 0.0001351 10
-11.9271 -13.9155 1.60345 0.000167764 10
-11.9294 -13.9183 2.25078 0.000164579 10
-11.9346 -13.9243 2.90462 0.000160407 10
-11.9451 -13.9366 3.56789 0.000155309 10
-12.0867 -14.1018 4.28786 0.000121544 10
-11.9433 -13.9345 4.91754 0.000142652 10
-6.5041 -7.64229 -2.68896 9.7469e-05 4
-7.54764 -8.86845 -2.68856 0.000136226 4
-8.5935 -10.0973 -2.57731 5.23379e-05 4
-12.077 -14.1904 -2.28795 0.00016929 10
-12.065 -14.1763 -1.62863 0.000113926 10
-12.0754 -14.1885 -0.976428 0.000115323 10
-12.0727 -14.1854 -0.325141 0.00011599 10
-12.0749 -14.188 0.3252 0.000115917 10
-12.0662 -14.1777 0.975685 0.000115104 10
-11.8493 -13.9228 1.59951 0.000170398 10
-11.8502 -13.9239 2.24499 0.000167168 10
-11.8437 -13.9163 2.89431 0.000162935 10
-11.8618 -13.9375 3.55751 0.000157763 10
-12.0841 -14.1987 4.3045 0.000118939 10
-11.8556 -13.9303 4.90142 0.000144922 10
-6.46818 -7.65406 -2.68514 0.000117917 4
-7.51349 -8.89102 -2.68744 0.000152421 4
-8.60273 -10.1799 -2.59072 0.000182153 4
-12.0681 -14.2806 -2.29569 0.000165664 10
-12.173 -14.4049 -1.65 0.000126935 10
-12.1682 -14.3991 -0.987991 0.000128583 10
-12.1704 -14.4017 -0.329123 0.000129415 10
-12.1721 -14.4037 0.329169 0.000129416 10
-12.1771 -14.4096 0.988715 0.000128587 10
-11.7643 -13.9211 1.59459 0.000173051 10
-11.7757 -13.9347 2.24008 0.000169774 10
-11.7744 -13.9331 2.88924 0.000165481 10
-11.7671 -13.9244 3.54367 0.000160235 10
-12.0773 -14.2915 4.31982 0.000116367 10
-11.7746 -13.9333 4.88799 0.000147208 10
-7.49152 -8.92805 -2.69071 3.32129e-05 4
-8.58518 -10.2314 -2.59618 0.000232173 4
-12.0673 -14.3813 -2.30509 0.000162085 10
-12.0947 -14.4139 -1.64619 0.000128924 10
-12.0916 -14.4102 -0.985855 0.000130596 10
-12.0809 -14.3975 -0.328061 0.000131439 10
-12.0823 -14.3992 0.328099 0.00013144 10
-12.092 -14.4107 0.985885 0.000130599 10
-11.7264 -13.975 1.59606 0.000145927 10
-11.7132 -13.9593 2.23745 0.000143071 10
-11.7292 -13.9783 2.89011 0.000139361 10
-11.7307 -13.9801 3.54739 0.000134854 10
-12.0891 -14.4073 4.34202 0.000113828 10
-11.7294 -13.9785 4.88944 0.00012372 10
-6.42792 -7.71502 -2.69072 0.000113223 4
-7.45293 -8.94528 -2.68805 3.40685e-05 4
-8.5863 -10.3056 -2.60738 0.000253489 4
-12.0716 -14.4888 -2.31556 0.000158552 10
-12.0733 -14.4908 -1.65015 0.00010671 10
-12.0734 -14.491 -0.988491 0.000108025 10
-12.07 -14.4868 -0.329135 0.000108652 10
-12.072 -14.4893 0.32919 0.000108582 10
-12.0761 -14.4942 0.988709 0.000107816 10
-12.0853 -14.5052 4.3588 0.000111323 10
-6.40174 -7.73838 -2.69105 4.5608e-05 4
-8.59107 -10.3848 -2.61982 0.000274268 4
-12.0696 -14.5897 -2.32493 0.000155065 10
-12.1465 -14.6826 -1.66715 0.000122768 10
-12.1343 -14.6678 -0.997657 0.000124369 10
-12.1393 -14.6738 -0.332419 0.000125176 10
-12.1481 -14.6845 0.332661 0.000125178 10
-12.1386 -14.673 0.998011 0.000124372 10
-12.0744 -14.5955 3.68205 7.23462e-05 10
-12.0792 -14.6013 4.37497 0.000108851 10
-6.37432 -7.76022 -2.6909 5.34767e-05 4
-8.58561 -10.4523 -2.62926 0.000240638 4
-12.075 -14.7004 -2.33584 0.000151626 10
-12.0662 -14.6896 -1.66315 0.000102055 10
-12.0631 -14.6858 -0.996011 0.000103316 10
-12.0734 -14.6984 -0.332018 0.000103917 10
-12.0728 -14.6977 0.332003 0.00010385 10
-12.0789 -14.7051 0.99732 0.000103114 10
-12.0849 -14.7124 3.70089 7.07311e-05 10
-12.0742 -14.6993 4.39169 0.000106413 10
-6.34806 -7.78349 -2.69126 6.44929e-05 4
-8.58736 -10.5291 -2.64104 0.000225456 4
-12.0768 -14.8076 -2.34616 0.000148232 10
-12.1888 -14.9449 -1.68723 0.000116983 10
-12.181 -14.9353 -1.01004 0.000118517 10
-12.182 -14.9367 -0.336438 0.00011929 10
-12.1942 -14.9515 0.336772 0.000119291 10
-12.0377 -14.7596 3.70218 3.4069e-05 10
-12.0795 -14.811 4.41242 0.000104008 10
-12.1633 -14.9137 5.15664 7.53724e-05 10
-6.30806 -7.78981 -2.68582 5.97798e-05 4
-8.57285 -10.5866 -2.64792 0.000242146 4
-12.0634 -14.8971 -2.35366 0.000144885 10
-12.1105 -14.9552 -1.68361 0.000118768 10
-12.1093 -14.9537 -1.00842 0.000120324 10
-12.0947 -14.9357 -0.335463 0.000121108 10
-12.1036 -14.9468 0.335711 0.000121109 10
-12.071 -14.9065 1.00524 0.000116318 10
-11.9911 -14.8078 3.70373 3.40633e-05 10
-12.0875 -14.9268 4.43434 0.000101636 10
-6.29112 -7.82457 -2.69022 9.43985e-05 4
-7.29866 -9.0777 -2.68914 3.9202e-05 4
-8.57632 -10.6668 -2.66048 0.000246244 4
-12.0767 -15.0204 -2.36646 0.000141584 10
-12.0621 -15.0022 -1.68415 9.5305e-05 10
-12.0793 -15.0236 -1.01028 9.64888e-05 10
-12.0634 -15.0038 -0.336045 9.70529e-05 10
-12.0697 -15.0117 0.336222 9.69884e-05 10
-12.0797 -15.0242 1.01032 0.000113672 10
-11.9328 -14.8414 3.70171 3.40575e-05 10
-12.0808 -15.0255 4.45109 9.92974e-05 10
-6.26493 -7.84794 -2.69072 0.000113289 4
-7.26364 -9.099 -2.68793 4.2616e-05 4
-8.56992 -10.7353 -2.6701 0.00021762 4
-12.072 -15.1224 -2.37587 0.000138329 10
-12.0792 -15.1313 1.01469 0.000111064 10
-11.8873 -14.891 3.7037 3.40518e-05 10
-12.0806 -15.133 4.47044 9.69921e-05 10
-6.22824 -7.85808 -2.68672 9.44171e-05 4
-7.24166 -9.1367 -2.69158 6.73414e-05 4
-8.56004 -10.8001 -2.67875 0.000167605 4
-12.0663 -15.2239 -2.38519 0.00013512 10
-12.0662 -15.2237 -1.69952 0.000137709 10
-12.0824 -15.2442 1.01942 0.000108492 10
-11.8416 -14.9403 3.70567 3.4046e-05 10
-12.0887 -15.2522 4.49313 9.47199e-05 10
-6.20932 -7.89064 -2.69043 0.000100722 4
-7.2095 -9.16163 -2.6915 3.83636e-05 4
-8.57149 -10.8924 -2.69422 0.000264242 4
-12.0709 -15.3394 -2.39667 0.000131958 10
-12.0707 -15.3391 -1.70769 0.000134491 10
-17.2868 -21.9676 0.487933 3.0616e-05 10
-12.0741 -15.3434 1.02323 0.000105957 10
-11.7863 -14.9777 3.70471 3.40402e-05 10
-12.0886 -15.3618 4.51298 9.24809e-05 10
-7.17062 -9.17797 -2.68892 3.32525e-05 4
-8.56434 -10.9619 -2.70398 0.000208135 4
-12.0629 -15.4398 -2.40576 0.000128841 10
-12.0634 -15.4405 -1.71428 0.000131319 10
-17.1684 -21.9746 -1.46145 3.09135e-05 10
-17.1734 -21.981 -0.486897 3.11547e-05 10
-17.1561 -21.9588 0.486404 3.11551e-05 10
-12.0734 -15.4532 1.02774 0.000103459 10
-11.7205 -15.0016 3.70047 3.40344e-05 10
-12.0842 -15.4671 4.53148 9.0275e-05 10
-8.55089 -11.0237 -2.71187 0.000231648 4
-12.0627 -15.5511 -2.41653 0.000125771 10
-12.0762 -15.5685 -1.7238 0.000128194 10
-17.0411 -21.9693 -1.45713 3.14536e-05 10
-17.0411 -21.9693 -0.485316 3.16987e-05 10
-17.0471 -21.977 0.485486 3.1699e-05 10
-12.0782 -15.5712 1.03277 0.000100998 10
-11.7222 -15.1121 3.71763 0.000104819 10
-12.0846 -15.5794 4.552 8.81019e-05 10
-6.11354 -7.9386 -2.6848 6.13956e-05 4
-7.11402 -9.23774 -2.69182 4.26418e-05 4
-8.54919 -11.1013 -2.7236 0.00019974 4
-12.0588 -15.6587 -2.42669 0.000122746 10
-12.0776 -15.6831 -1.73181 0.000125115 10
-16.9145 -21.964 -1.45286 3.19982e-05 10
-16.9143 -21.9637 -0.483885 3.22472e-05 10
-16.9216 -21.9732 0.484095 3.22476e-05 10
-12.0805 -15.6868 1.03764 9.85735e-05 10
-12.1473 -15.7736 1.7418 6.05574e-05 10
-12.1508 -15.7782 2.44521 5.93242e-05 10
-12.1515 -15.7791 3.15435 5.77246e-05 10
-11.7233 -15.2231 3.73483 0.000102315 10
-12.0762 -15.6812 4.56941 8.59618e-05 10
-12.1512 -15.7787 5.33629 5.1e-05 10
-7.07022 -9.24746 -2.68745 3.92352e-05 4
-8.53858 -11.168 -2.73263 0.000232184 4
-12.0613 -15.7755 -2.43825 0.000119767 10
-12.0623 -15.7769 -1.7375 0.000122083 10
-16.8534 -22.0433 -1.4542 3.2018e-05 10
-16.8459 -22.0336 -0.484127 3.22672e-05 10
-16.8023 -21.9766 0.482874 3.28008e-05 10
-12.0726 -15.7903 1.04169 9.61853e-05 10
-12.0895 -15.8124 1.74142 7.86554e-05 10
-12.0892 -15.812 2.4439 7.71082e-05 10
-12.0907 -15.814 3.15287 7.5083e-05 10
-11.7222 -15.332 3.75149 9.98485e-05 10
-12.0741 -15.7922 4.58944 8.38546e-05 10
-12.0987 -15.8245 5.33746 6.64847e-05 10
-6.06759 -7.99375 -2.68906 6.4557e-05 4
-7.04045 -9.27545 -2.68842 6.82434e-05 4
-8.54379 -11.256 -2.74685 8.63405e-05 4
-12.0657 -15.8959 -2.45035 0.000116834 10
-12.0754 -15.9087 -1.74737 0.000119097 10
-16.672 -21.9646 0.481329 3.33586e-05 10
-12.0832 -15.9191 1.0474 9.38335e-05 10
-12.0241 -15.8411 1.73994 0.000123958 10
-12.023 -15.8398 2.44169 0.00012152 10
-12.0364 -15.8574 3.15313 0.00011833 10
-11.7234 -15.445 3.76909 9.74193e-05 10
-12.0796 -15.9143 4.61265 8.17799e-05 10
-12.0291 -15.8478 5.33113 0.000104783 10
-6.03145 -8.004 -2.68541 0.000127552 4
-7.01514 -9.3094 -2.69115 4.00979e-05 4
-8.54779 -11.3433 -2.76085 0.000105358 4
-12.061 -16.0055 -2.46073 0.000113946 10
-12.0673 -16.0139 -1.75428 0.000116157 10
-16.5582 -21.9735 0.480255 3.3921e-05 10
-12.0727 -16.021 1.05133 9.15183e-05 10
-11.9425 -15.8482 1.73613 0.000125742 10
-11.9439 -15.8501 2.43684 0.000123273 10
-11.9459 -15.8528 3.1439 0.00012004 10
-11.7258 -15.5606 3.7873 9.50276e-05 10
-12.0909 -16.0452 4.63832 7.9738e-05 10
-11.9485 -15.8561 5.31988 0.000106313 10
-5.99872 -8.01865 -2.68329 8.03189e-05 4
-6.98066 -9.33124 -2.6904 5.20484e-05 4
-8.53178 -11.4047 -2.76852 5.93137e-05 1
-12.0727 -16.1379 -2.47459 0.000111103 10
-12.0658 -16.1287 -1.76224 0.000113264 10
-16.4419 -21.9783 0.479102 3.44879e-05 10
-12.0721 -16.1371 1.05617 8.92391e-05 10
-11.8568 -15.8494 1.73172 0.000127537 10
-11.8539 -15.8454 2.42974 0.000125035 10
-11.8634 -15.8582 3.13674 0.00012176 10
-11.7194 -15.6657 3.8029 9.26728e-05 10
-12.076 -16.1423 4.65417 7.77284e-05 10
-11.8566 -15.8491 5.30358 0.000107852 10
-5.9746 -8.04481 -2.68504 5.67015e-05 4
-6.93944 -9.34396 -2.68707 4.94947e-05 4
-8.49467 -11.4381 -2.76942 5.9323e-05 1
-12.0604 -16.2393 -2.48368 0.000108306 10
-12.0648 -16.2453 -1.77036 0.000110416 10
-16.3209 -21.9761 0.47781 3.50594e-05 10
-12.0822 -16.2687 1.06202 8.6996e-05 10
-11.7764 -15.8569 1.72804 0.000129342 10
-11.7626 -15.8384 2.42236 0.000126808 10
-11.7723 -15.8515 3.12727 0.00012349 10
-11.7276 -15.7912 3.8234 9.03552e-05 10
-12.0836 -16.2705 4.67896 7.57513e-05 10
-11.774 -15.8537 5.29133 0.000109399 10
-5.94311 -8.06104 -2.68352 4.88312e-05 4
-8.453 -11.4654 -2.76887 5.93323e-05 1
-12.0601 -16.358 -2.49537 0.000105553 10
-12.0754 -16.3787 -1.78029 0.000107614 10
-16.1898 -21.9594 0.476214 3.56351e-05 10
-12.0806 -16.3857 1.0669 8.47891e-05 10
-11.714 -15.8885 1.72701 9.55894e-05 10
-11.7221 -15.8995 2.42543 9.36479e-05 10
-11.7188 -15.895 3.12776 9.113e-05 10
-12.088 -16.3957 3.95954 7.69464e-05 10
-12.0761 -16.3797 4.69819 7.38064e-05 10
-11.7215 -15.8987 5.29266 8.0545e-05 10
-5.92459 -8.09493 -2.6879 9.6097e-05 4
-6.8702 -9.38693 -2.68556 4.52391e-05 4
-8.40928 -11.4898 -2.76766 5.93416e-05 1
-12.0658 -16.4859 -2.50844 0.000102846 10
-12.0619 -16.4804 -1.78677 0.000104858 10
-16.0775 -21.9671 0.475163 3.62153e-05 10
-12.0739 -16.4968 1.07138 8.2618e-05 10
-12.0731 -16.4958 1.78844 8.14622e-05 10
-12.0764 -16.5003 2.51064 7.97814e-05 10
-12.0735 -16.4963 3.23778 7.76025e-05 10
-12.073 -16.4956 3.97346 7.49595e-05 10
-12.0747 -16.4979 4.71999 7.18938e-05 10
-12.0796 -16.5047 5.48033 6.84527e-05 10
-6.85063 -9.42909 -2.69077 4.09763e-05 4
-8.37298 -11.5244 -2.76894 5.93509e-05 1
-12.0579 -16.5963 -2.51882 0.000100183 10
-12.0683 -16.6105 -1.79629 0.000102146 10
-15.9618 -21.9696 0.474007 3.67998e-05 10
-12.0784 -16.6244 1.07692 8.04827e-05 10
-12.0743 -16.6188 1.79719 7.93539e-05 10
-12.0736 -16.6179 3.99274 7.30055e-05 10
-12.0906 -16.6413 4.7489 7.00131e-05 10
-12.0861 -16.635 5.50958 6.66546e-05 10
-5.85966 -8.12461 -2.68411 0.000111873 4
-6.81461 -9.44869 -2.68956 9.56232e-05 4
-8.33031 -11.5503 -2.76815 5.93603e-05 1
-12.064 -16.7272 -2.53228 9.75641e-05 10
-12.0616 -16.7238 -1.80398 9.94803e-05 10
-15.8495 -21.9758 0.472946 3.73886e-05 10
-12.0682 -16.733 1.08122 7.83828e-05 10
-12.0843 -16.7553 1.80738 7.72807e-05 10
-12.0745 -16.7416 4.01232 7.10844e-05 10
-12.0759 -16.7437 4.76607 6.81642e-05 10
-12.0868 -16.7587 5.53654 6.4887e-05 10
-5.84093 -8.15852 -2.68856 0.000141826 4
-6.77102 -9.45766 -2.68537 3.07399e-05 4
-8.29354 -11.5843 -2.76935 5.93697e-05 1
-9.49156 -13.2577 -2.58247 0.000124178 4
-12.0696 -16.8586 -2.54578 9.499e-05 10
-12.063 -16.8494 -1.81297 9.68594e-05 10
-12.3809 -17.2935 -1.11464 0.000122083 10
-12.3684 -17.276 -0.370868 0.000122915 10
-12.3824 -17.2955 0.371287 0.000122916 10
-12.0667 -16.8545 1.08635 7.63183e-05 10
-12.0833 -16.8778 1.81603 7.52428e-05 10
-12.0864 -16.8821 4.03585 6.91962e-05 10
-12.087 -16.8829 4.79365 6.63471e-05 10
-12.0812 -16.8749 5.56095 6.31501e-05 10
-5.79966 -8.16092 -2.68266 0.000151297 4
-6.73972 -9.4837 -2.68606 5.03855e-05 4
-8.24383 -11.6002 -2.76625 5.93791e-05 1
-9.48327 -13.3443 -2.59287 0.000107862 4
-12.0689 -16.9826 -2.55813 9.24598e-05 10
-12.0647 -16.9767 -1.82213 9.42833e-05 10
-12.2823 -17.2829 -1.11118 0.000123789 10
-12.2777 -17.2764 -0.369956 0.000124632 10
-12.2801 -17.2798 0.370027 0.000124633 10
-12.0748 -16.9908 1.09241 7.42891e-05 10
-12.0714 -16.9861 1.82314 7.32396e-05 10
-12.0759 -16.9924 4.05212 6.73406e-05 10
-12.0754 -16.9917 4.81256 6.45615e-05 10
-12.0862 -17.007 5.59055 6.14434e-05 10
-5.77939 -8.1928 -2.68649 0.000165498 4
-6.70704 -9.50784 -2.68625 6.74738e-05 4
-8.20802 -11.6356 -2.76785 5.93885e-05 1
-9.47978 -13.4384 -2.60473 0.000118969 4
-12.0601 -17.0963 -2.5689 8.99734e-05 10
-12.0644 -17.1024 -1.83109 9.17516e-05 10
-12.1901 -17.2806 -1.1083 0.000125504 10
-12.2007 -17.2955 -0.369451 0.000126358 10
-12.2029 -17.2987 0.369519 0.000126359 10
-12.066 -17.1046 1.09701 7.2295e-05 10
-12.0713 -17.1122 1.83214 7.12711e-05 10
-12.1504 -17.2243 2.58813 4.34325e-05 10
-12.155 -17.2309 3.3398 4.22295e-05 10
-12.0814 -17.1264 4.07399 6.55175e-05 10
-12.08 -17.1245 4.83818 6.28073e-05 10
-12.0773 -17.1207 5.61404 5.97669e-05 10
-5.74461 -8.20415 -2.68362 0.000226992 4
-6.67631 -9.53476 -2.68726 4.95439e-05 4
-9.46696 -13.5202 -2.61416 9.47906e-05 4
-12.0609 -17.2247 -2.58185 8.75308e-05 10
-12.0677 -17.2344 -1.84071 8.92644e-05 10
-12.1082 -17.2923 -1.10633 0.000127227 10
-12.1071 -17.2907 -0.368442 0.000128092 10
-12.0967 -17.2759 0.368128 0.000128093 10
-12.0665 -17.2328 1.10252 7.03358e-05 10
-12.0687 -17.2359 1.84086 6.93372e-05 10
-12.0773 -17.2482 2.58537 6.17034e-05 10
-12.08 -17.252 3.3357 6.00412e-05 10
-12.0889 -17.2647 4.09682 6.37267e-05 10
-12.0799 -17.2519 4.86223 6.10844e-05 10
-12.09 -17.2663 5.64789 5.81205e-05 10
-5.72081 -8.23117 -2.68591 5.99068e-05 4
-6.63935 -9.55277 -2.68579 0.000105935 4
-9.47396 -13.6312 -2.62921 0.000129447 4
-12.0661 -17.3609 -2.59594 8.51317e-05 10
-12.0645 -17.3585 -1.84945 8.68212e-05 10
-12.0655 -17.36 -1.10796 8.79401e-05 10
-12.0749 -17.3735 -0.369306 8.84701e-05 10
-12.0711 -17.3681 0.369191 8.84028e-05 10
-12.0724 -17.3699 1.10859 6.84115e-05 10
-12.0748 -17.3733 1.85103 6.74376e-05 10
-12.0767 -17.376 2.5982 6.60228e-05 10
-12.0732 -17.3711 3.35056 6.41898e-05 10
-12.0758 -17.3748 4.11291 6.19679e-05 10
-12.0892 -17.394 4.89038 5.93925e-05 10
-12.0882 -17.3926 5.67538 5.65039e-05 10
-5.68533 -8.24136 -2.68275 0.000100906 4
-6.61476 -9.58864 -2.68936 2.99047e-05 4
-9.46132 -13.715 -2.63898 0.000105733 4
-12.0663 -17.491 -2.60908 8.27758e-05 10
-12.0733 -17.5012 -1.86015 8.44221e-05 10
-12.0682 -17.4938 -1.1138 8.55122e-05 10
-12.073 -17.5007 -0.371113 8.60285e-05 10
-12.0655 -17.4899 0.370884 8.59626e-05 10
-12.0822 -17.5141 1.1151 6.65216e-05 10
-12.0804 -17.5115 1.86124 6.55722e-05 10
-12.0727 -17.5004 2.61048 6.41931e-05 10
-12.0797 -17.5105 3.3693 6.24066e-05 10
-12.0865 -17.5204 4.13737 6.02413e-05 10
-12.0868 -17.5208 4.91411 5.77316e-05 10
-12.0785 -17.5088 5.69949 5.49171e-05 10
-5.67074 -8.28191 -2.68948 8.04179e-05 4
-6.58384 -9.61546 -2.69042 4.35809e-05 4
-9.4467 -13.7965 -2.64831 9.69911e-05 4
-12.0619 -17.6159 -2.62142 8.0463e-05 10
-12.0619 -17.616 -1.86786 8.20667e-05 10
-12.067 -17.6234 -1.11937 8.31286e-05 10
-12.076 -17.6365 -0.373096 8.36314e-05 10
-12.0768 -17.6377 0.373121 8.35669e-05 10
-12.0791 -17.6411 1.12049 6.46663e-05 10
-12.0806 -17.6432 1.87075 6.37409e-05 10
-12.079 -17.6409 2.62514 6.2397e-05 10
-12.0791 -17.6411 3.3863 6.06562e-05 10
-12.0879 -17.654 4.15892 5.85465e-05 10
-12.0872 -17.6529 4.93931 5.61015e-05 10
-12.0797 -17.642 5.72909 5.33598e-05 10
-5.63926 -8.29791 -2.68827 6.15024e-05 4
-9.44968 -13.9048 -2.66274 0.000107263 4
-12.0631 -17.7503 -2.63513 7.81927e-05 10
-12.0627 -17.7497 -1.87756 7.97546e-05 10
-12.0628 -17.7499 -1.12472 8.07887e-05 10
-12.0755 -17.7686 -0.374996 8.12781e-05 10
-12.0647 -17.7527 0.37466 8.1215e-05 10
-12.0822 -17.7785 1.12653 6.2845e-05 10
-12.0685 -17.7582 1.87847 6.19433e-05 10
-12.0691 -17.7592 2.63645 6.0634e-05 10
-12.0831 -17.7797 3.40479 5.89381e-05 10
-12.0775 -17.7715 4.17665 5.68831e-05 10
-12.0875 -17.7862 4.96478 5.45018e-05 10
-12.0785 -17.7729 5.75789 5.18319e-05 10
-5.61335 -8.32212 -2.68975 0.000134058 4
-6.51388 -9.65722 -2.68932 3.41898e-05 4
-9.43396 -13.9864 -2.67205 9.25116e-05 4
-12.0644 -17.8862 -2.64903 7.59649e-05 10
-12.0669 -17.8899 -1.88793 7.74857e-05 10
-14.8183 -21.9691 0.46255 4.28705e-05 10
-12.0785 -17.9072 1.13201 6.10576e-05 10
-12.0706 -17.8954 1.88851 6.01793e-05 10
-12.0692 -17.8934 2.6501 8.76716e-05 10
-12.0685 -17.8923 3.41826 8.52839e-05 10
-12.0725 -17.8982 4.19651 5.52511e-05 10
-12.0805 -17.9101 4.98755 5.29324e-05 10
-12.0695 -17.8938 5.78337 7.5172e-05 10
-5.57053 -8.32116 -2.68314 0.000121453 4
-7.70375 -11.5077 -2.69184 8.46481e-05 4
-9.42758 -14.0828 -2.68415 0.000105497 4
-12.0664 -18.0246 -2.66327 7.37791e-05 10
-12.0728 -18.0342 -1.8987 7.52596e-05 10
-14.6998 -21.9583 0.461239 4.34989e-05 10
-12.0657 -18.0235 1.13669 5.9304e-05 10
-12.077 -18.0405 1.89936 5.84486e-05 10
-11.9667 -17.8756 2.64126 8.88366e-05 10
-11.9768 -17.8907 3.40993 8.64198e-05 10
-12.0861 -18.054 4.22311 5.36504e-05 10
-12.0756 -18.0383 5.01148 5.13932e-05 10
-11.9739 -17.8863 5.76741 7.61838e-05 10
-5.54158 -8.34074 -2.6832 9.62263e-05 4
-7.66479 -11.5364 -2.69228 6.09885e-05 4
-12.0663 -18.1612 -2.67722 7.16355e-05 10
-12.0715 -18.1691 -1.90846 7.3076e-05 10
-14.6408 -22.0362 -1.38652 4.31063e-05 10
-14.6342 -22.0262 -0.461591 4.34335e-05 10
-14.6033 -21.9797 0.460617 4.41308e-05 10
-12.0791 -18.1805 1.14392 5.7584e-05 10
-12.07 -18.1668 1.90821 5.67511e-05 10
-11.8759 -17.8747 2.63499 9.00069e-05 10
-11.8766 -17.8757 3.39916 8.75609e-05 10
-12.0848 -18.1891 4.24482 5.20806e-05 10
-12.0837 -18.1874 5.04115 4.98839e-05 10
-11.8816 -17.8833 5.75302 7.72004e-05 10
-5.52066 -8.37252 -2.68721 7.73047e-05 4
-6.41365 -9.72682 -2.68985 2.90724e-05 4
-7.6148 -11.5484 -2.68886 6.54127e-05 4
-9.36569 -14.2038 -2.6947 3.14217e-05 4
-12.0622 -18.2932 -2.69046 6.95333e-05 10
-12.0678 -18.3017 -1.91795 7.09348e-05 10
-14.4799 -21.96 0.45914 4.47662e-05 10
-12.0754 -18.3134 1.14963 5.58972e-05 10
-12.082 -18.3233 1.92021 5.50865e-05 10
-11.7975 -17.8919 2.63143 9.11822e-05 10
-11.8018 -17.8984 3.39562 8.87069e-05 10
-12.0816 -18.3227 4.26614 5.05416e-05 10
-12.0744 -18.3118 5.06393 4.84043e-05 10
-11.7993 -17.8946 5.74338 7.82215e-05 10
-5.49423 -8.39607 -2.68859 5.68013e-05 4
-6.36873 -9.73243 -2.68524 4.36142e-05 4
-7.57036 -11.5687 -2.68741 7.94711e-05 4
-12.0698 -18.4446 -2.70651 6.74725e-05 10
-12.0632 -18.4345 -1.92744 6.88356e-05 10
-14.3829 -21.9793 0.458493 4.54052e-05 10
-12.0797 -18.4597 1.15616 5.42435e-05 10
-12.0754 -18.4532 1.92939 5.34546e-05 10
-11.714 -17.9008 2.62672 6.01948e-05 10
-11.7183 -17.9074 3.38956 5.85132e-05 10
-12.0739 -18.4509 4.28615 4.90331e-05 10
-12.0876 -18.4717 5.09646 4.69543e-05 10
-11.7246 -17.9171 5.73743 5.14675e-05 10
-5.45282 -8.3966 -2.68265 7.8899e-05 4
-6.33525 -9.75543 -2.68546 5.98703e-05 4
-7.5396 -11.61 -2.69087 7.14552e-05 4
-12.0668 -18.5812 -2.72036 6.5453e-05 10
-12.0642 -18.5772 -1.93794 6.67784e-05 10
-14.2694 -21.9729 0.457317 4.60476e-05 10
-12.0763 -18.5958 1.16204 5.26228e-05 10
-12.0741 -18.5925 1.93953 5.18554e-05 10
-12.0778 -18.5982 4.31055 4.7555e-05 10
-12.0885 -18.6146 5.1242 4.55337e-05 10
-5.43672 -8.43614 -2.68921 0.000116783 4
-6.31222 -9.79466 -2.69018 5.64564e-05 4
-12.0587 -18.7115 -2.73326 6.34738e-05 10
-12.072 -18.7321 -1.9497 6.47621e-05 10
-12.2378 -18.9894 -1.18396 6.27502e-05 10
-12.2358 -18.9862 -0.394265 6.31905e-05 10
-12.2347 -18.9845 0.39423 6.31911e-05 10
-12.0744 -18.7357 1.16814 5.10345e-05 10
-12.0766 -18.7393 1.95044 5.02881e-05 10
-12.0875 -18.7561 4.33734 4.61068e-05 10
-12.0886 -18.7579 5.152 4.41419e-05 10
-5.40243 -8.44754 -2.68681 5.68193e-05 4
-6.2751 -9.8121 -2.68894 5.90302e-05 4
-12.0657 -18.8666 -2.74974 6.15353e-05 10
-12.072 -18.8764 -1.96032 6.27873e-05 10
-12.1524 -19.0022 -1.1821 6.35619e-05 10
-12.1517 -19.0011 -0.393691 6.40075e-05 10
-12.15 -18.9984 0.393635 6.40081e-05 10
-12.0695 -18.8725 1.17403 4.94787e-05 10
-12.0731 -18.8782 1.9605 4.8753e-05 10
-12.1555 -19.0071 2.77021 4.62515e-05 10
-12.1535 -19.0039 3.57281 4.49657e-05 10
-12.0874 -18.9005 4.36093 4.46887e-05 10
-12.0784 -18.8865 5.17572 4.27791e-05 10
-5.37542 -8.4703 -2.68807 7.89241e-05 4
-6.23259 -9.82099 -2.6854 5.30484e-05 4
-12.0578 -19.0001 -2.76305 5.96368e-05 10
-12.0629 -19.008 -1.9696 6.08531e-05 10
-12.0619 -19.0064 -1.17974 4.07265e-05 10
-12.065 -19.0114 -0.393028 4.09772e-05 10
-12.0635 -19.0091 0.392981 4.09431e-05 10
-12.0745 -19.0264 1.18097 4.79549e-05 10
-12.0916 -19.0534 2.7708 4.61511e-05 10
-12.0899 -19.0506 3.57363 4.48675e-05 10
-12.0869 -19.046 4.38474 4.33001e-05 10
-12.082 -19.0382 5.20568 4.14449e-05 10
-12.0875 -19.0468 6.04456 3.94395e-05 10
-5.33853 -8.47744 -2.6844 3.47303e-05 4
-6.20213 -9.84881 -2.68707 4.96324e-05 4
-12.0619 -19.154 -1.98035 5.89593e-05 10
-12.1301 -19.2623 -1.19298 6.09818e-05 10
-12.1276 -19.2583 -0.397255 6.14113e-05 10
-12.1253 -19.2547 0.39718 6.14118e-05 10
-12.077 -19.1779 1.18775 4.6463e-05 10
-12.0178 -19.0839 2.76912 7.26728e-05 10
-12.019 -19.0858 3.57234 7.06522e-05 10
-12.0808 -19.184 4.4068 4.19408e-05 10
-12.0748 -19.1744 5.23138 4.01391e-05 10
-12.0264 -19.0976 6.0473 6.21073e-05 10
-5.3035 -8.48737 -2.68167 0.000142094 4
-12.0733 -19.3213 -1.99328 5.71056e-05 10
-12.0613 -19.3021 -1.19283 3.82208e-05 10
-12.0664 -19.3102 -0.397456 3.8457e-05 10
-12.0688 -19.3141 0.397536 3.84244e-05 10
-12.0651 -19.3082 1.19321 4.50026e-05 10
-11.9279 -19.0887 2.76375 7.35932e-05 10
-11.9189 -19.0742 3.56236 7.15491e-05 10
-12.0872 -19.3436 4.43373 4.06107e-05 10
-12.0896 -19.3474 5.26703 3.88612e-05 10
-11.9246 -19.0833 6.02956 6.29042e-05 10
-5.27612 -8.50951 -2.68283 6.15805e-05 4
-6.12586 -9.88 -2.68384 9.75786e-05 4
-8.59944 -13.8695 -2.58469 0.00011877 4
-12.0733 -19.4723 -2.00449 5.52917e-05 10
-12.121 -19.5492 -1.20548 5.85232e-05 10
-12.1079 -19.5281 -0.401067 5.89374e-05 10
-12.1197 -19.5471 0.401458 5.89379e-05 10
-12.0797 -19.4826 1.20137 4.35735e-05 10
-11.8351 -19.088 2.75766 7.4517e-05 10
-11.8322 -19.0835 3.55636 7.24494e-05 10
-12.0756 -19.476 4.45439 3.93094e-05 10
-12.0771 -19.4783 5.29117 3.76113e-05 10
-11.8288 -19.0778 6.01475 6.37043e-05 10
-5.25374 -8.53983 -2.68659 0.00015002 4
-6.09695 -9.91045 -2.68632 6.16366e-05 4
-7.25517 -11.7931 -2.69141 3.89835e-05 4
-8.59942 -13.9782 -2.59934 9.74837e-05 4
-12.061 -19.6049 -2.0138 5.35172e-05 10
-12.0747 -19.6272 -1.20768 3.58212e-05 10
-12.0751 -19.6278 -0.402248 3.60434e-05 10
-12.0651 -19.6115 0.401912 3.60124e-05 10
-12.0672 -19.6149 1.20693 4.21754e-05 10
-11.7424 -19.087 2.75157 7.54441e-05 10
-11.744 -19.0896 3.54985 7.33529e-05 10
-12.0748 -19.6274 4.47934 3.80367e-05 10
-12.0768 -19.6306 5.32106 3.6389e-05 10
-11.7349 -19.0749 6.00087 6.45074e-05 10
-5.21366 -8.54135 -2.68133 0.000240058 4
-6.05899 -9.92622 -2.68484 3.68155e-05 4
-8.58139 -14.0586 -2.6087 0.000131325 4
-12.0723 -19.7777 -2.02721 5.17817e-05 10
-12.0902 -19.8069 -1.21614 5.61791e-05 10
-12.0888 -19.8046 -0.405002 5.65785e-05 10
-12.0903 -19.8071 0.405053 5.6579e-05 10
-12.0657 -19.7667 1.21367 4.08081e-05 10
-11.719 -19.1987 1.96786 4.6432e-05 10
-11.7169 -19.1954 2.76128 4.54266e-05 10
-11.723 -19.2054 3.56374 4.41261e-05 10
-12.0747 -19.7815 4.50486 3.67924e-05 10
-12.0785 -19.7877 5.35217 3.5194e-05 10
-12.0097 -19.675 6.17645 5.62278e-05 10
-6.02185 -9.94325 -2.68374 0.00011303 4
-8.58372 -14.1734 -2.62443 0.000112298 4
-12.0667 -19.9245 -2.03792 5.0085e-05 10
-12.1603 -20.0791 -1.23023 5.32834e-05 10
-12.1524 -20.0659 -0.409478 5.36643e-05 10
-12.1528 -20.0666 0.409491 5.36648e-05 10
-12.073 -19.9348 1.2214 3.94714e-05 10
-11.9297 -19.6983 2.01479 6.81558e-05 10
-11.9177 -19.6785 2.82478 6.67229e-05 10
-11.9179 -19.6787 3.64383 6.48499e-05 10
-12.0774 -19.9422 4.53183 3.55762e-05 10
-12.0833 -19.9519 5.38516 3.40262e-05 10
-11.9204 -19.6829 6.16583 5.69347e-05 10
-5.16534 -8.59658 -2.68728 9.79393e-05 4
-8.58001 -14.2795 -2.63852 0.000129135 4
-12.0617 -20.0741 -2.0489 4.84264e-05 10
-12.0601 -20.0714 -1.22718 3.24169e-05 10
-12.0681 -20.0848 -0.409 3.26192e-05 10
-12.0748 -20.0958 0.409224 3.25903e-05 10
-12.0693 -20.0868 1.22812 3.81647e-05 10
-11.8362 -19.6987 2.01059 6.89924e-05 10
-11.8229 -19.6765 2.81856 6.75434e-05 10
-11.8314 -19.6908 3.6384 6.56492e-05 10
-12.0862 -20.1147 4.56143 3.43876e-05 10
-12.0833 -20.11 5.4164 3.28851e-05 10
-11.8232 -19.6771 6.15104 5.76441e-05 10
-5.12817 -8.60258 -2.68354 0.000224337 4
-8.5672 -14.3716 -2.65 0.000115145 4
-12.0701 -20.2478 -2.06232 4.68059e-05 10
-12.1258 -20.3413 -1.24108 5.1182e-05 10
-12.1287 -20.346 -0.413455 5.15495e-05 10
-12.1325 -20.3525 0.413586 5.155e-05 10
-12.0703 -20.2481 1.2354 3.68879e-05 10
-11.7412 -19.696 2.00612 6.98315e-05 10
-11.7306 -19.6783 2.81293 6.83664e-05 10
-11.7349 -19.6855 3.62983 6.64511e-05 10
-12.0867 -20.2756 4.58832 3.32266e-05 10
-12.0821 -20.2678 5.44752 3.17706e-05 10
-11.7292 -19.6759 6.13782 5.83559e-05 10
-5.10382 -8.63008 -2.68655 7.90004e-05 4
-5.92069 -10.0113 -2.68524 9.59418e-05 4
-8.56207 -14.4777 -2.66402 0.000119861 4
-12.0626 -20.3967 -2.07318 4.52229e-05 10
-12.063 -20.3974 -1.24193 3.02745e-05 10
-12.0652 -20.4012 -0.413718 3.04641e-05 10
-12.0718 -20.4124 0.413944 3.04367e-05 10
-12.0798 -20.4259 1.24366 3.56407e-05 10
-11.7113 -19.8027 2.01281 4.06244e-05 10
-12.0751 -20.4178 4.61094 3.20928e-05 10
-12.0805 -20.4271 5.47894 3.06823e-05 10
-5.06965 -8.64101 -2.68442 0.000116933 4
-5.89098 -10.0409 -2.68765 3.85531e-05 4
-8.55676 -14.5846 -2.67819 0.000114955 4
-12.06 -20.5558 -2.08507 4.36771e-05 10
-12.0913 -20.6092 -1.25225 4.9175e-05 10
-12.09 -20.6069 -0.417031 4.95296e-05 10
-12.099 -20.6222 0.417341 4.95301e-05 10
-12.0683 -20.5698 1.24986 3.44227e-05 10
-11.7114 -19.9617 2.0248 3.92541e-05 10
-12.0752 -20.5817 4.6384 3.09859e-05 10
-12.0886 -20.6045 5.51517 2.962e-05 10
-5.04488 -8.66798 -2.68731 0.000105884 4
-5.85784 -10.0648 -2.68854 4.45562e-05 4
-6.95125 -11.9434 -2.68615 4.98921e-05 4
-8.55693 -14.7023 -2.6943 0.000105161 4
-12.0689 -20.7365 -2.09911 4.21679e-05 10
-12.7825 -21.9626 0.44356 5.53575e-05 10
-12.0701 -20.7385 1.25754 3.32337e-05 10
-11.7202 -20.1373 2.03846 3.79158e-05 10
-12.1441 -20.8657 2.96432 3.41783e-05 10
-12.0801 -20.7557 4.66808 2.99057e-05 10
-12.1332 -20.8469 6.46312 2.90554e-05 10
-5.00744 -8.67314 -2.68348 0.00012012 4
-5.82038 -10.0812 -2.68748 4.28481e-05 4
-8.55419 -14.8163 -2.7097 0.000119405 4
-12.0595 -20.8877 -2.11014 4.06952e-05 10
-12.6758 -21.9552 0.442514 5.60421e-05 10
-12.0731 -20.9111 1.26544 3.20733e-05 10
-11.7116 -20.2851 2.04926 3.66092e-05 10
-12.0524 -20.8753 2.95969 5.38036e-05 10
-11.7172 -20.2948 3.71164 3.4753e-05 10
-12.0857 -20.933 4.69843 2.88518e-05 10
-12.0603 -20.8891 6.46311 4.57413e-05 10
-4.98608 -8.70618 -2.6883 0.000303494 4
-8.54904 -14.9275 -2.72456 0.000117779 4
-12.0665 -21.0692 -2.12421 3.92585e-05 10
-12.5746 -21.9564 0.441652 5.67287e-05 10
-12.0673 -21.0707 1.27254 3.09413e-05 10
-11.7109 -20.4483 2.06161 3.5334e-05 10
-11.9608 -20.8847 2.95508 5.44487e-05 10
-11.7164 -20.4581 3.734 3.35369e-05 10
-11.9646 -20.8914 6.45085 4.62972e-05 10
-4.95113 -8.71556 -2.68584 3.47791e-05 4
-8.54696 -15.0454 -2.74062 4.15908e-05 4
-12.0671 -21.242 -2.13737 3.78572e-05 10
-12.5102 -22.0219 -0.442089 5.65337e-05 10
-12.4771 -21.9637 0.44092 5.74175e-05 10
-12.0782 -21.2616 1.28152 2.98371e-05 10
-11.7152 -20.6225 2.07504 3.40896e-05 10
-11.8637 -20.884 2.9491 5.50956e-05 10
-11.7148 -20.6217 3.75639 3.23503e-05 10
-11.868 -20.8915 6.43805 4.68548e-05 10
-4.92366 -8.73808 -2.68747 0.000107511 4
-5.70729 -10.1288 -2.68409 3.17202e-05 4
-8.53315 -15.1439 -2.75312 7.68395e-05 4
-12.0621 -21.4068 -2.1497 3.64911e-05 10
-12.3711 -21.9552 -1.32071 5.76805e-05 10
-12.3838 -21.9776 -0.44033 5.81077e-05 10
-12.3752 -21.9625 0.440026 5.81082e-05 10
-12.0694 -21.4198 1.2885 2.87607e-05 10
-11.7633 -20.8765 2.09645 5.69657e-05 10
-11.7683 -20.8853 2.94347 5.57442e-05 10
-11.72 -20.7996 3.78131 3.11934e-05 10
-11.776 -20.899 6.42766 4.7414e-05 10
-4.88621 -8.74284 -2.68367 5.05989e-05 4
-5.67959 -10.1624 -2.68773 3.17245e-05 4
-12.0585 -21.5762 -2.16248 3.51596e-05 10
-12.281 -21.9743 -1.31928 5.83685e-05 10
-12.2841 -21.9799 -0.439512 5.88004e-05 10
-12.2732 -21.9602 0.439119 5.88009e-05 10
-11.7101 -20.9528 2.09999 3.16925e-05 10
-11.7177 -20.9663 2.9491 3.09824e-05 10
-11.7187 -20.9682 3.80451 3.00652e-05 10
-4.85854 -8.76503 -2.68526 7.43253e-05 4
-5.64693 -10.1873 -2.68909 4.80218e-05 4
-6.70377 -12.0939 -2.68782 3.58455e-05 4
-12.0657 -21.767 -2.17737 3.38626e-05 10
-12.1803 -21.9739 -1.31669 5.90582e-05 10
-12.1799 -21.9731 -0.438524 5.94948e-05 10
-12.1781 -21.9699 0.43846 5.94953e-05 10
-4.82464 -8.77598 -2.68344 9.80569e-05 4
-5.60039 -10.1871 -2.68384 4.63129e-05 4
-12.0654 -21.947 -2.19114 3.25992e-05 10
-12.081 -21.9752 -1.31423 5.97498e-05 10
-12.0821 -21.9773 -0.437764 6.0191e-05 10
-12.0702 -21.9556 0.437331 6.01916e-05 10
-4.79064 -8.78665 -2.68157 7.27599e-05 4
-5.56218 -10.2018 -2.68258 4.03148e-05 4
-12.0678 -22.1338 -2.20558 3.13692e-05 10
-12.0695 -22.137 -1.32138 3.18044e-05 10
-12.0648 -22.1284 -0.439933 3.20079e-05 10
-12.0753 -22.1477 0.440315 3.19764e-05 10
-4.76638 -8.81524 -2.6852 7.75137e-05 4
-5.53943 -10.245 -2.68884 3.51729e-05 4
-12.067 -22.3174 -2.21966 3.01723e-05 10
-12.0711 -22.325 -1.33008 3.05919e-05 10
-12.0644 -22.3127 -0.442755 3.07882e-05 10
-12.0759 -22.3339 0.443176 3.07575e-05 10
-12.0093 -22.2108 1.32328 4.51325e-05 10
-12.0038 -22.2005 2.20803 4.44708e-05 10
-12.0124 -22.2165 3.10106 4.34926e-05 10
-12.0002 -22.194 4.90431 4.06615e-05 10
-12.0012 -22.1958 5.82539 3.8858e-05 10
-12.0002 -22.1938 6.76045 3.6836e-05 10
-4.73648 -8.83349 -2.68571 9.33432e-05 4
-5.49658 -10.2511 -2.68539 5.74855e-05 4
-12.0648 -22.5008 -2.2337 2.90078e-05 10
-12.0623 -22.496 -1.33775 2.94124e-05 10
-12.069 -22.5087 -0.445806 2.96016e-05 10
-12.0738 -22.5176 0.445982 2.95719e-05 10
-11.9024 -22.1979 1.32003 4.56492e-05 10
-11.9039 -22.2006 2.2039 4.49805e-05 10
-11.9065 -22.2054 3.0937 4.39921e-05 10
-11.9064 -22.2053 4.89761 4.11311e-05 10
-11.9137 -22.2189 5.82051 3.93085e-05 10
-11.9057 -22.204 6.75084 3.7265e-05 10
-4.70277 -8.84462 -2.68409 8.54422e-05 4
-11.8143 -22.2194 1.31884 4.6167e-05 10
-11.8031 -22.1985 2.19958 4.54913e-05 10
-11.8056 -22.203 3.0876 4.44926e-05 10
-11.8074 -22.2065 4.88876 4.16017e-05 10
-11.8105 -22.2123 5.80796 3.97599e-05 10
-11.8069 -22.2056 6.73876 3.76949e-05 10
-4.67687 -8.87047 -2.68696 5.69678e-05 4
-5.42448 -10.2884 -2.6852 4.80605e-05 4
-6.44295 -12.2201 -2.68529 2.98344e-05 4
-4.64496 -8.88498 -2.68643 3.00697e-05 4
-5.38803 -10.3064 -2.68495 3.69086e-05 4
-4.604 -8.88203 -2.68066 9.33847e-05 4
-5.35199 -10.325 -2.68493 9.95808e-05 4
-4.58026 -8.91222 -2.68493 6.64847e-05 4
-5.32007 -10.3517 -2.68703 5.75243e-05 4
-4.54676 -8.92351 -2.68353 8.07404e-05 4
-5.28568 -10.3737 -2.68793 6.8695e-05 4
-7.71832 -15.148 -2.6927 3.30131e-05 4
-4.52026 -8.94859 -2.68632 7.75828e-05 4
-5.24095 -10.3753 -2.68359 9.70449e-05 4
-4.48574 -8.95781 -2.68437 0.000133014 4
-5.20889 -10.4019 -2.68574 8.50332e-05 4
-7.60641 -15.1896 -2.69059 3.33325e-05 4
-9.4766 -18.9243 -2.59867 3.57342e-05 4
-4.44697 -8.95837 -2.67987 7.60166e-05 4
-7.55794 -15.2254 -2.69223 2.99909e-05 4
-9.47796 -19.0932 -2.61731 4.69532e-05 4
-11.9815 -24.1366 1.41222 3.29088e-05 10
-11.9723 -24.118 2.35573 3.24101e-05 10
-11.975 -24.1235 3.30686 3.16734e-05 10
-11.9775 -24.1285 5.23618 2.95439e-05 10
-4.42437 -8.99151 -2.68514 9.34476e-05 4
-5.1337 -10.433 -2.68447 0.000128873 4
-9.46104 -19.2274 -2.63115 4.28069e-05 4
-11.87 -24.123 1.409 3.32662e-05 10
-11.8753 -24.1339 2.35321 3.27625e-05 10
-11.8754 -24.134 3.3026 3.20185e-05 10
-11.8729 -24.1289 5.22724 2.98677e-05 10
-4.38488 -8.99033 -2.6802 0.000121971 4
-5.09665 -10.4497 -2.68415 9.19422e-05 4
-7.45052 -15.2758 -2.69189 2.87861e-05 4
-11.7679 -24.1278 1.40687 3.36241e-05 10
-11.7621 -24.116 2.34745 3.31154e-05 10
-11.768 -24.128 3.29614 3.2364e-05 10
-11.7665 -24.1248 5.21742 3.01919e-05 10
-11.7617 -24.1151 6.19431 2.88106e-05 10
-5.06132 -10.4698 -2.68477 5.67198e-05 4
-9.43646 -19.5203 -2.66215 4.56605e-05 4
-4.32663 -9.03037 -2.68307 4.75318e-05 4
-5.02867 -10.4956 -2.68687 5.58681e-05 4
-9.43349 -19.6892 -2.68069 3.38193e-05 4
-4.28944 -9.03354 -2.67955 6.02138e-05 4
-4.98257 -10.4933 -2.6818 6.36124e-05 4
-5.92669 -12.4816 -2.6858 3.91877e-05 4
-4.94613 -10.5111 -2.68192 3.78288e-05 4
-5.87905 -12.4936 -2.68395 3.19213e-05 4
-11.9781 -25.4548 -1.47435 3.38823e-05 10
-11.9786 -25.4559 -0.491071 3.41479e-05 10
-4.22826 -9.06754 -2.68081 8.24165e-05 4
-4.91655 -10.5436 -2.68581 7.05089e-05 4
-11.8635 -25.4414 -1.47116 3.42391e-05 10
-11.8668 -25.4483 -0.490123 3.45072e-05 10
-4.19826 -9.08586 -2.68188 3.48725e-05 4
-4.87595 -10.5525 -2.68374 3.00994e-05 4
-11.7622 -25.4558 -1.46961 3.4596e-05 10
-11.7578 -25.4462 -0.489288 3.48667e-05 10
-4.16937 -9.1067 -2.68372 6.9753e-05 4
-4.83725 -10.5655 -2.68273 3.09637e-05 4
-5.74683 -12.5522 -2.68345 6.91315e-05 4
-4.13205 -9.10904 -2.68014 5.07352e-05 4
-4.80301 -10.5882 -2.68422 5.8495e-05 4
-4.7715 -10.6171 -2.6873 5.59221e-05 4
-5.66548 -12.6063 -2.6865 5.217e-05 4
-4.07447 -9.15141 -2.68417 6.02619e-05 4
-4.72307 -10.6082 -2.68086 7.05577e-05 4
-8.58847 -19.29 -2.59266 4.21165e-05 4
-4.03634 -9.15161 -2.68008 8.24731e-05 4
-4.68778 -10.6286 -2.68187 0.000101548 4
-8.57934 -19.452 -2.61039 3.74214e-05 4
-4.01044 -9.17953 -2.68414 5.71033e-05 4
-8.58259 -19.6448 -2.63223 5.07593e-05 4
-3.97518 -9.18609 -2.68199 0.000111047 4
-4.61346 -10.6611 -2.68187 6.80047e-05 4
-8.57335 -19.8118 -2.65059 4.46888e-05 4
-3.94193 -9.19721 -2.6812 7.13956e-05 4
-4.58356 -10.6942 -2.68618 6.80142e-05 4
-8.56318 -19.9794 -2.66899 4.54221e-05 4
-3.90875 -9.20844 -2.68048 5.23628e-05 4
-4.53754 -10.6898 -2.68106 3.96088e-05 4
-5.3999 -12.7214 -2.68634 3.19827e-05 4
-8.55915 -20.1641 -2.68965 3.73716e-05 4
-3.88238 -9.23581 -2.68449 8.72814e-05 4
-4.50831 -10.7248 -2.68589 3.27249e-05 4
-5.34772 -12.7217 -2.68245 3.15834e-05 4
-8.54471 -20.327 -2.7074 3.70099e-05 4
-4.46358 -10.7231 -2.68153 7.14881e-05 4
-8.54217 -20.5212 -2.72927 3.71731e-05 4
-8.54038 -20.7205 -2.75179 3.61858e-05 4
-3.77731 -9.25602 -2.67871 6.03245e-05 4
-4.39143 -10.7609 -2.68325 6.9785e-05 4
-5.21865 -12.7879 -2.68474 4.29438e-05 4
-3.74474 -9.26855 -2.67854 0.000141303 4
-3.7133 -9.2839 -2.67922 8.89199e-05 4
-3.68916 -9.31775 -2.68525 4.44651e-05 4
-5.08302 -12.8382 -2.68398 6.12073e-05 4
-3.6517 -9.31804 -2.68164 0.000127058 4
-4.23804 -10.8142 -2.68153 7.67207e-05 4
-5.03413 -12.8456 -2.68183 2.95955e-05 4
-3.6153 -9.32079 -2.67879 4.92407e-05 4
-4.20067 -10.83 -2.68179 7.50072e-05 4
-3.59097 -9.35479 -2.68494 0.000344725 4
-4.162 -10.8424 -2.68125 3.53533e-05 4
-3.55473 -9.35788 -2.68225 0.00027327 4
-4.12237 -10.8522 -2.6801 3.19087e-05 4
-3.5248 -9.37757 -2.68435 0.000259002 4
-4.08771 -10.8752 -2.68224 8.71145e-05 4
-3.49269 -9.39157 -2.68485 0.000328955 4
-3.45825 -9.39924 -2.68358 0.000236812 4
-4.00674 -10.89 -2.67893 5.8668e-05 4
-3.42371 -9.40657 -2.68224 0.000322674 4
-3.97008 -10.9077 -2.67986 5.34991e-05 4
-3.38703 -9.40783 -2.67921 8.9024e-05 4
-3.9334 -10.9254 -2.68082 7.5082e-05 4
-3.35473 -9.42118 -2.67967 6.20062e-05 4
-3.89696 -10.9439 -2.68201 6.55982e-05 4
-3.32567 -9.44373 -2.68276 3.33919e-05 4
-3.85946 -10.9595 -2.68251 4.22996e-05 4
-3.28788 -9.44149 -2.67885 0.000119271 4
-3.81647 -10.9594 -2.6792 5.95734e-05 4
-3.26109 -9.47089 -2.68394 4.93044e-05 4
-3.22568 -9.47538 -2.68201 3.65851e-05 4
-3.74127 -10.9899 -2.68021 3.71361e-05 4
-3.18958 -9.47765 -2.67948 4.45436e-05 4
-3.70714 -11.0156 -2.68329 5.87353e-05 4
-3.16118 -9.50285 -2.68347 6.04592e-05 4
-3.12711 -9.51116 -2.68272 4.29629e-05 4
-3.0943 -9.52329 -2.68308 0.000100259 4
-3.59308 -11.0584 -2.68441 3.62933e-05 4
-3.05561 -9.51711 -2.67832 7.32136e-05 4
-3.02389 -9.5325 -2.67966 3.34276e-05 4
-3.51339 -11.0756 -2.68257 4.75407e-05 4
-2.99168 -9.54647 -2.68063 5.41273e-05 4
-2.95685 -9.55204 -2.67928 6.36868e-05 4
-3.4299 -11.0802 -2.67783 9.16504e-05 4
-4.08412 -13.1937 -2.68465 3.09286e-05 4
-2.92453 -9.56569 -2.68023 4.77708e-05 4
-3.39549 -11.1062 -2.68121 0.000110688 4
-2.89206 -9.57895 -2.6811 0.000164033 4
-3.35755 -11.1207 -2.68189 2.94058e-05 4
-2.85525 -9.57774 -2.67796 5.09677e-05 4
-3.31579 -11.1226 -2.67953 7.17953e-05 4
-2.82011 -9.5819 -2.67635 8.44254e-05 4
-3.27567 -11.1298 -2.67849 4.06611e-05 4
-3.23633 -11.1395 -2.6781 5.27806e-05 4
-2.75299 -9.6008 -2.6762 8.60389e-05 4
-2.72127 -9.61675 -2.67798 7.33012e-05 4
-3.1632 -11.1785 -2.6821 5.972e-05 4
-2.68786 -9.62682 -2.67815 5.89668e-05 4
-3.12477 -11.1917 -2.68262 3.80878e-05 4
-2.65844 -9.6514 -2.68239 0.00019286 4
-3.08641 -11.2052 -2.68325 3.03016e-05 4
-2.61791 -9.63549 -2.67542 6.69514e-05 4
-3.04185 -11.1959 -2.67847 3.8099e-05 4
-2.59123 -9.67058 -2.68263 3.34797e-05 4
-3.00573 -11.2175 -2.68113 0.000133366 4
-3.56934 -13.321 -2.68067 9.0526e-05 4
-2.55107 -9.65541 -2.67594 0.000145096 4
-2.96515 -11.2226 -2.67986 5.80313e-05 4
-3.52061 -13.325 -2.67899 8.23857e-05 4
-2.52266 -9.68464 -2.68158 3.98665e-05 4
-3.47308 -13.3334 -2.67823 8.36246e-05 4
-2.88957 -11.2541 -2.6825 3.55221e-05 4
-3.42757 -13.3495 -2.67904 7.0992e-05 4
-2.45213 -9.69071 -2.67846 7.97522e-05 4
-2.84688 -11.2507 -2.67931 4.3326e-05 4
-2.42037 -9.70759 -2.68077 0.000111667 4
-2.80511 -11.2507 -2.67694 3.98658e-05 4
-3.339 -13.392 -2.68283 4.6121e-05 4
-2.38151 -9.69575 -2.67519 6.38172e-05 4
-2.76769 -11.268 -2.67875 0.00013175 4
-2.3493 -9.71084 -2.67707 7.97812e-05 4
-2.31952 -9.73633 -2.68185 7.34076e-05 4
-2.28338 -9.73524 -2.67934 5.74564e-05 4
-2.25143 -9.75203 -2.68178 4.15013e-05 4
-2.61371 -11.3212 -2.68246 4.33643e-05 4
-2.21191 -9.73574 -2.67516 7.02416e-05 4
-2.18055 -9.75522 -2.67841 0.000106972 4
-2.53102 -11.3231 -2.67866 3.12315e-05 4
-2.14804 -9.76984 -2.68035 0.000217163 4
-2.48993 -11.3248 -2.67699 3.38391e-05 4
-2.11181 -9.7675 -2.67767 4.63125e-05 4
-2.45217 -11.3417 -2.67894 0.000143187 4
-3.58005 -16.5584 -2.68319 3.06575e-05 4
-2.07911 -9.78144 -2.67948 8.30532e-05 4
-2.41366 -11.3554 -2.68016 4.60001e-05 4
-2.86321 -13.4703 -2.67686 4.12997e-05 4
-2.04369 -9.78257 -2.67782 3.99343e-05 4
-2.37497 -11.3683 -2.68125 5.46874e-05 4
-2.00925 -9.78831 -2.67746 4.7927e-05 4
-2.33274 -11.3642 -2.67834 4.60137e-05 4
-1.97312 -9.78557 -2.67481 6.87038e-05 4
-2.29139 -11.364 -2.67639 0.000101592 4
-1.94207 -9.80818 -2.67912 8.78877e-05 4
-2.25145 -11.3706 -2.67608 3.30007e-05 4
-2.21143 -11.3768 -2.6757 2.95313e-05 4
-1.87268 -9.81695 -2.67788 7.99175e-05 4
-2.17242 -11.3882 -2.67659 3.90914e-05 4
-1.83774 -9.81988 -2.67691 0.000182234 4
-2.13318 -11.3985 -2.67724 3.56219e-05 4
-1.80337 -9.82577 -2.67678 0.00016467 4
-2.0939 -11.4088 -2.67791 9.9061e-05 4
-1.77152 -9.84569 -2.68051 6.55565e-05 4
-2.05463 -11.4192 -2.67866 4.69306e-05 4
-1.73677 -9.84973 -2.67994 0.000107142 4
-2.01409 -11.4225 -2.67776 4.17223e-05 4
-2.39293 -13.571 -2.67862 3.40027e-05 4
-1.69955 -9.83936 -2.67549 8.95625e-05 4
-1.66412 -9.83888 -2.67376 0.000127962 4
-1.93447 -11.4373 -2.67801 3.99958e-05 4
-1.63312 -9.8649 -2.67927 7.03878e-05 4
-1.89397 -11.4405 -2.6772 3.73929e-05 4
-1.59909 -9.87307 -2.67996 0.000137593 4
-1.85265 -11.4386 -2.67522 7.4797e-05 4
-1.5633 -9.87026 -2.6777 7.84057e-05 4
-1.77624 -11.4738 -2.68049 4.43696e-05 4
-2.1098 -13.6284 -2.68066 2.95295e-05 4
-1.49421 -9.88003 -2.67745 7.04224e-05 4
-1.73488 -11.4713 -2.67849 5.56878e-05 4
-1.45952 -9.88382 -2.67708 9.2841e-05 4
-1.69286 -11.464 -2.67537 5.56961e-05 4
-1.42621 -9.89722 -2.67935 6.40362e-05 4
-1.65306 -11.4714 -2.67574 4.09079e-05 4
-1.38859 -9.8803 -2.67344 2.88198e-05 4
-1.91884 -13.6533 -2.68001 6.03346e-05 4
-1.35714 -9.90736 -2.67946 5.60454e-05 4
-1.31929 -9.8876 -2.67285 6.40599e-05 4
-1.53382 -11.4954 -2.67745 4.44094e-05 4
-1.253 -9.91849 -2.67877 5.12605e-05 4
-1.72664 -13.6678 -2.67786 4.23071e-05 4
-1.21789 -9.91891 -2.67772 5.76752e-05 4
-1.41112 -11.4926 -2.6732 3.2233e-05 4
-1.18255 -9.91711 -2.67611 3.20458e-05 4
-1.37395 -11.5222 -2.67896 4.35647e-05 4
-1.14726 -9.91551 -2.67458 0.000100957 4
-1.11231 -9.91644 -2.67376 9.77637e-05 4
-1.29361 -11.5328 -2.67924 0.000101972 4
-1.53402 -13.6761 -2.67503 2.91851e-05 4
-1.04457 -9.93841 -2.67766 0.000113819 4
-1.21227 -11.534 -2.6775 8.10788e-05 4
-1.4403 -13.7036 -2.67838 2.91961e-05 4
-1.00989 -9.94215 -2.6777 4.48918e-05 4
-1.17095 -11.5277 -2.67508 3.83656e-05 4
-0.974315 -9.93682 -2.67533 5.93286e-05 4
-1.13142 -11.5391 -2.6768 5.31967e-05 4
-0.940895 -9.95362 -2.67895 6.4147e-05 4
-1.09189 -11.551 -2.67865 4.6227e-05 4
-0.904736 -9.94137 -2.67479 7.37782e-05 4
-1.05164 -11.5556 -2.67885 3.66382e-05 4
-1.00912 -11.5343 -2.67307 6.45628e-05 4
-0.836644 -9.96331 -2.67906 0.000102673 4
-0.968612 -11.5349 -2.67241 6.02094e-05 4
-0.800721 -9.95202 -2.67525 8.02235e-05 4
-1.10404 -13.722 -2.6759 3.45875e-05 4
-0.76655 -9.9622 -2.67725 0.000101094 4
-0.731028 -9.95468 -2.67453 0.000129994 4
-0.848257 -11.551 -2.67395 2.96818e-05 4
-1.00785 -13.7243 -2.67491 3.74839e-05 4
-0.695969 -9.9528 -2.67336 0.000218289 4
-0.661461 -9.95877 -2.67432 0.000231158 4
-0.768248 -11.5665 -2.67622 5.15221e-05 4
-0.626245 -9.95387 -2.6724 0.000110777 4
-0.726852 -11.553 -2.67249 5.15299e-05 4
-0.863387 -13.7231 -2.67278 3.33837e-05 4
